ply
format ascii 1.0
element vertex 695
property float x
property float y
property float z
property uchar red
property uchar green
property uchar blue
end_header
0.09512832760810852 0.9801462888717651 4.926909446716309 58 43 36
0.4114462435245514 0.1618373841047287 5.350409030914307 162 172 171
0.06539642065763474 0.6062242388725281 4.915209770202637 112 90 79
0.4005092680454254 -0.3755258023738861 5.6450581550598145 209 194 173
0.6337615847587585 0.873916745185852 5.44391393661499 156 137 120
0.4938296675682068 -0.11510590463876724 5.538315773010254 165 171 157
0.4623023271560669 -0.2647918164730072 5.546338081359863 123 100 84
0.41121968626976013 -0.16039320826530457 5.287943363189697 150 110 98
0.0675971582531929 -0.0089386822655797 5.097891330718994 56 62 62
0.025172749534249306 0.17955221235752106 4.943435192108154 96 77 70
0.28104066848754883 0.31145718693733215 5.302997589111328 48 54 52
0.34518274664878845 0.04019423946738243 5.203662395477295 173 177 160
-0.04770646616816521 -0.601722240447998 4.961557388305664 101 76 71
0.12637703120708466 0.3862966299057007 5.342709541320801 33 27 29
0.058807894587516785 0.20167768001556396 5.069448471069336 60 66 56
0.291199266910553 -0.35148459672927856 5.319180488586426 209 183 168
0.47967109084129333 -0.11248454451560974 5.454185962677002 93 71 58
0.4088965058326721 0.15321169793605804 5.344241619110107 154 169 164
0.3615139126777649 -0.25624024868011475 5.293155670166016 207 172 140
0.3756573796272278 0.018678106367588043 5.228918075561523 126 112 101
0.22305288910865784 -0.3197970986366272 5.241979598999023 181 154 133
0.3471253514289856 0.10699564963579178 5.220537185668945 104 111 104
0.02789922058582306 0.523284375667572 5.024590015411377 55 49 51
0.01851329766213894 0.06592216342687607 4.911858558654785 96 82 73
0.32518091797828674 -0.34407222270965576 5.376520156860352 185 157 133
-0.03474597632884979 -0.601446270942688 5.046325206756592 122 105 95
0.472956120967865 -0.23867104947566986 5.729292869567871 165 164 144
-0.017120584845542908 -0.5244033932685852 4.905881881713867 107 74 67
0.19940558075904846 -0.5118061900138855 5.462042331695557 235 217 193
-0.0601075105369091 -0.5589964389801025 5.088277339935303 101 77 75
0.5001956820487976 -0.12314341962337494 5.555083274841309 178 182 167
0.4811207354068756 -0.17527395486831665 5.489778995513916 163 125 104
-0.021256789565086365 -0.46539297699928284 4.969074249267578 63 54 55
0.0904061496257782 -0.38479143381118774 5.220726013183594 156 160 145
0.34729114174842834 -0.2487875074148178 5.297597408294678 192 150 126
0.34945443272590637 -0.23458558320999146 5.244694709777832 191 155 139
0.41897502541542053 0.27468597888946533 5.545833110809326 122 134 122
0.32883718609809875 -0.2568197250366211 5.2349324226379395 148 122 105
0.40537741780281067 -0.26345571875572205 5.390400409698486 207 173 148
0.23760394752025604 0.049718454480171204 5.126929759979248 156 163 156
0.43729662895202637 -0.24453891813755035 5.433107852935791 93 83 81
-0.025961460545659065 -0.4842544496059418 5.064579010009766 106 89 81
-0.024416733533143997 -0.4199487566947937 4.9939045906066895 93 60 55
0.35286107659339905 -0.44525274634361267 5.584683418273926 225 208 182
0.004238205496221781 0.6367947459220886 5.139389991760254 104 77 70
-0.04089931398630142 -0.5999871492385864 4.932370185852051 147 123 113
0.30139365792274475 0.376870721578598 5.4427103996276855 94 91 82
0.16048219799995422 0.16410094499588013 5.384334564208984 140 160 158
0.33950135111808777 0.24225610494613647 5.2814836502075195 144 163 161
-0.0072735631838440895 -0.4070270359516144 4.974165916442871 127 104 98
-0.025397533550858498 -0.29828575253486633 5.026534080505371 68 56 60
0.0332152433693409 0.25016534328460693 4.919699668884277 107 87 86
0.4936991035938263 -0.06790190190076828 5.662007808685303 111 112 107
0.025143766775727272 0.08214828372001648 4.909628868103027 122 99 91
-0.04965226724743843 -0.42488670349121094 5.043583393096924 77 54 46
0.025143766775727272 0.08214828372001648 4.909628868103027 122 99 91
0.4960368871688843 -0.14965714514255524 5.727718353271484 108 119 103
0.2238304167985916 -0.4946803152561188 5.4770917892456055 246 240 218
-0.010838174261152744 -0.3162485361099243 4.914328575134277 106 91 88
0.020800812169909477 0.058561716228723526 4.897522926330566 68 47 42
0.02205641195178032 -0.06349126249551773 4.956272602081299 118 109 104
0.050900839269161224 -0.017090387642383575 5.084778308868408 78 79 74
0.17193163931369781 0.31579166650772095 5.246966361999512 28 38 40
0.1865563839673996 0.12575441598892212 5.115084648132324 110 120 112
0.024506760761141777 0.6210337281227112 5.115684986114502 68 49 45
0.24371692538261414 0.07260971516370773 5.142441749572754 115 126 118
0.48771968483924866 -0.2432323545217514 5.656889915466309 156 119 101
0.19815853238105774 0.029530106112360954 5.109114170074463 82 70 56
0.0844266340136528 0.3427707254886627 5.1507744789123535 75 71 70
0.2039489597082138 -0.3029285967350006 5.218748569488525 177 162 143
0.28213590383529663 -0.30737605690956116 5.245534896850586 205 178 157
0.5789656639099121 0.7665296196937561 5.041289329528809 89 71 61
0.4797919988632202 -0.21846544742584229 5.729599952697754 124 117 107
0.6382906436920166 0.9015645980834961 5.279293060302734 32 20 20
-0.0031370024662464857 0.6062036156654358 5.659831523895264 123 125 114
0.29952186346054077 -0.48789453506469727 5.61672830581665 177 180 171
0.07711160182952881 0.03745507076382637 5.092355251312256 124 120 119
-0.048841919749975204 -0.5959572792053223 5.158681869506836 143 113 111
-0.0013768674107268453 -0.3061310946941376 4.885827541351318 85 54 51
0.4268553555011749 -0.25107109546661377 5.398503303527832 188 153 133
0.01299010869115591 -0.426224023103714 5.1696624755859375 103 113 114
0.45327073335647583 0.13148322701454163 5.753100395202637 116 116 116
-0.013484933413565159 -0.248636394739151 4.979394435882568 110 91 76
-0.010316046886146069 -0.2771115005016327 4.963960647583008 86 58 54
0.4352802336215973 -0.27795952558517456 5.457648277282715 194 160 133
0.44159141182899475 -0.03836572542786598 5.321272373199463 126 97 83
0.03356287255883217 0.16156035661697388 4.905239105224609 110 90 79
-0.04262098670005798 -0.48217397928237915 5.095169544219971 61 51 49
0.016436895355582237 0.04131566733121872 4.91624116897583 95 84 80
0.276428759098053 -0.23516958951950073 5.219508647918701 209 182 155
0.4954722821712494 -0.13334760069847107 5.55667781829834 171 177 165
0.4804283678531647 0.11044464260339737 5.676234722137451 141 136 132
0.37180525064468384 0.33300134539604187 5.559459209442139 121 127 113
0.5071986317634583 -0.04920775443315506 5.53700590133667 123 105 85
0.1547943651676178 -0.5020902752876282 5.437767028808594 186 173 156
0.30598220229148865 0.16711054742336273 5.192325115203857 147 161 164
0.5061690807342529 -0.10596802830696106 5.530421257019043 178 181 170
0.481434166431427 0.01715133711695671 5.783720016479492 119 128 127
0.33848100900650024 -0.09786529839038849 5.183706760406494 183 163 136
0.24810218811035156 -0.46308979392051697 5.470424652099609 240 244 229
0.7307567596435547 0.7866862416267395 5.054220676422119 146 126 89
-0.03609737381339073 -0.4226459264755249 4.992547988891602 79 62 55
0.44026920199394226 0.211457759141922 5.716882228851318 82 81 89
0.481434166431427 0.01715133711695671 5.783720016479492 119 128 127
0.47102028131484985 -0.20819434523582458 5.46034049987793 186 144 119
0.0303531214594841 0.14241304993629456 4.91010856628418 96 75 74
0.23028932511806488 0.3050049841403961 5.331485271453857 111 116 109
0.0489211343228817 0.13885822892189026 4.9985833168029785 60 62 77
0.5233638882637024 0.6771247982978821 5.368046283721924 175 182 166
0.21410560607910156 0.1874767541885376 5.171350955963135 125 133 136
-0.017229557037353516 -0.34014514088630676 4.959527015686035 75 60 55
0.5922898650169373 0.8936436772346497 5.488024711608887 123 107 84
-0.015641607344150543 -0.31463417410850525 4.957633018493652 121 99 102
0.25995102524757385 -0.04958188533782959 5.122793197631836 145 118 101
-0.03992322087287903 -0.49496230483055115 5.004234313964844 58 47 51
0.024899931624531746 0.15088193118572235 4.9044060707092285 74 61 53
-0.07520865648984909 -0.5992115139961243 5.175151348114014 143 113 111
0.14912965893745422 0.3157288134098053 5.213510513305664 27 46 42
0.5047321915626526 -0.07251495122909546 5.734795570373535 163 174 160
-0.07147415727376938 0.7435095906257629 6.022012233734131 50 41 44
0.6189912557601929 0.8569369316101074 5.451528072357178 173 147 110
-0.07602394372224808 -0.5609534382820129 5.141314506530762 97 79 67
-0.01184769719839096 -0.5484330058097839 4.872663974761963 89 71 71
0.4975239634513855 -0.03325634449720383 5.58291482925415 90 81 72
-0.011023983359336853 -0.3405442535877228 4.912262439727783 120 93 82
0.47963687777519226 -0.18877194821834564 5.7210612297058105 117 95 72
-0.038336172699928284 -0.6241505742073059 5.380816459655762 92 70 59
0.3879595100879669 -0.39353910088539124 5.622611999511719 157 140 133
0.4768468737602234 0.12281838804483414 5.718231678009033 80 92 106
-0.0066179316490888596 -0.18805383145809174 4.993784427642822 105 102 97
0.45999398827552795 0.1578254997730255 5.6714959144592285 136 150 153
0.41441258788108826 0.9227592349052429 4.976347923278809 180 198 202
0.26733607053756714 -0.2974803149700165 5.244813919067383 134 119 112
0.2151794135570526 -0.18776677548885345 5.1494035720825195 200 173 152
0.602310061454773 0.8059968948364258 5.0075249671936035 143 125 111
-0.07379569113254547 -0.531193733215332 5.1791839599609375 60 58 59
0.24129103124141693 0.2797662317752838 5.263699531555176 106 115 114
0.07172752916812897 -0.22971677780151367 5.138149738311768 148 116 95
0.24143686890602112 0.37805548310279846 5.350635528564453 52 51 46
0.4533897638320923 0.17739640176296234 5.487966060638428 149 159 151
0.41811859607696533 -0.29542043805122375 5.443252086639404 191 164 135
0.7183428406715393 0.782537043094635 5.594696521759033 219 226 236
0.3529435992240906 0.15112295746803284 5.253020763397217 143 150 142
0.12418357282876968 -0.3800799250602722 5.236529350280762 230 241 211
-0.13239920139312744 -0.6337540149688721 5.718653202056885 113 94 90
0.17190676927566528 0.2836037278175354 5.21836519241333 70 75 69
0.06051290035247803 0.22051040828227997 5.052906513214111 50 58 61
0.4164678156375885 -0.31920623779296875 5.470615386962891 211 197 171
0.5411207675933838 0.6754097938537598 5.303755283355713 177 169 150
0.5032143592834473 0.03246428817510605 5.540051460266113 111 83 79
0.3833337724208832 0.2909908592700958 5.454353332519531 110 113 104
0.30969616770744324 0.3784635663032532 5.4949049949646 96 96 96
0.43712443113327026 0.02116057276725769 5.3083953857421875 148 127 100
0.31437623500823975 0.3769254982471466 5.570615291595459 93 94 80
0.2945820391178131 0.25894877314567566 5.296817779541016 118 129 125
-0.0175175741314888 -0.3783830404281616 4.951327800750732 95 66 60
-0.048447903245687485 -0.4474320411682129 5.106831073760986 80 60 51
0.5951638221740723 0.9018225073814392 5.062922477722168 93 92 88
0.000847703660838306 -0.24185813963413239 4.919892311096191 114 95 88
0.021988363936543465 0.5993238687515259 5.066184997558594 68 51 44
0.04793860390782356 -0.044840626418590546 5.0039143562316895 71 71 71
-0.02564779669046402 -0.5185040831565857 4.923987865447998 93 71 57
-0.0047643124125897884 -0.2841489911079407 4.898598670959473 113 96 80
0.3267921507358551 -0.36228248476982117 5.353464126586914 211 183 162
0.41553935408592224 -0.36477434635162354 5.5925116539001465 217 205 189
0.6292418241500854 0.7658559679985046 5.0775465965271 170 150 115
0.14830541610717773 -0.08883000165224075 5.097292423248291 124 93 72
0.3547011911869049 -0.402381956577301 5.6380462646484375 199 187 175
0.4514603912830353 -0.08559057116508484 5.359996795654297 101 75 62
-0.015641607344150543 -0.31463417410850525 4.957633018493652 121 99 102
0.39653170108795166 -0.37721842527389526 5.578373432159424 188 156 135
0.45298460125923157 0.7665630578994751 4.98239278793335 216 202 157
0.4448648989200592 -0.27488943934440613 5.790999889373779 124 126 123
0.0662098154425621 0.5054534077644348 4.9720563888549805 56 50 52
0.484311044216156 -0.21522991359233856 5.751678943634033 165 173 152
0.4326707124710083 -0.35417166352272034 5.6642165184021 204 216 202
0.19604697823524475 -0.12049616128206253 5.141881465911865 162 125 106
-0.048841919749975204 -0.5959572792053223 5.158681869506836 143 113 111
-0.013234719634056091 -0.3726983070373535 4.9067816734313965 117 107 98
0.037520069628953934 0.3310736119747162 4.9052815437316895 107 96 92
-0.007272632792592049 -0.2865530848503113 4.899332523345947 113 96 80
0.6959978342056274 0.8232049942016602 5.0753583908081055 137 112 90
0.023919707164168358 -0.661112904548645 5.423259735107422 64 69 72
0.008128058165311813 -0.03478795662522316 4.965251922607422 80 72 70
-0.06786607205867767 -0.5807214379310608 5.133276462554932 121 103 81
0.5573233962059021 0.803778350353241 5.3484296798706055 70 54 55
-0.03100472316145897 -0.6463682055473328 5.39192008972168 117 88 82
-0.04053068533539772 -0.4488109052181244 5.083616256713867 79 58 55
0.543347179889679 0.683475136756897 5.336262226104736 93 119 118
0.47383829951286316 0.16125650703907013 5.497218132019043 146 156 148
-0.2404235303401947 -0.29896804690361023 5.470221996307373 98 69 65
0.28605109453201294 -0.37294894456863403 5.340034008026123 202 181 164
0.019263017922639847 0.13573415577411652 4.94003963470459 103 78 73
0.04046286270022392 0.5146406292915344 4.959487438201904 116 95 94
0.4860221743583679 -0.04263324290513992 5.674993515014648 128 133 126
0.41271620988845825 -0.3118019998073578 5.459090709686279 200 176 150
0.6966361999511719 0.7974339723587036 5.077160835266113 173 151 114
0.9276823401451111 0.6808957457542419 6.040926456451416 139 149 158
0.4942222535610199 0.9310619831085205 5.004998683929443 173 189 189
0.4596357047557831 -0.041230715811252594 5.340663909912109 128 98 88
0.4395250082015991 0.03387065604329109 5.370530605316162 127 112 93
0.0014934627106413245 -0.48396486043930054 4.87999153137207 73 63 53
-0.03900303691625595 -0.4880501925945282 5.025967597961426 80 61 57
0.34307560324668884 -0.23715823888778687 5.272616863250732 204 174 146
0.03367221727967262 0.0682981014251709 4.892064571380615 67 51 51
-0.002586960094049573 -0.2654222249984741 4.923947811126709 116 86 76
0.6871293187141418 0.8728464245796204 5.568728446960449 169 139 111
0.380058616399765 -0.2712371051311493 5.353179931640625 192 154 133
0.4797841012477875 0.13714715838432312 5.635082721710205 119 124 128
0.34265097975730896 0.2414838820695877 5.306647300720215 129 132 125
0.02440117485821247 0.14571918547153473 4.92938232421875 66 48 48
0.36370357871055603 -0.41105180978775024 5.5320305824279785 220 189 171
0.010650846175849438 -0.07336993515491486 4.911868572235107 63 52 46
-0.06602335721254349 -0.6185440421104431 5.262884616851807 99 71 59
0.019718360155820847 -0.07604972273111343 4.942684650421143 69 48 55
0.09074170142412186 -0.44628748297691345 5.290656089782715 136 137 129
0.2942153215408325 0.1314118653535843 5.175208568572998 162 173 175
0.529449462890625 0.6559538841247559 5.179993152618408 108 90 78
0.3491367697715759 0.36989477276802063 5.290656566619873 68 68 56
0.48954927921295166 -0.18492059409618378 5.7435832023620605 149 154 131
0.32143861055374146 0.2627665400505066 5.355498790740967 141 151 142
0.07491310685873032 0.2673073709011078 5.183025360107422 48 50 49
0.27331608533859253 -0.4987388849258423 5.5954365730285645 236 237 221
0.18700619041919708 -0.39952516555786133 5.294292449951172 225 228 211
0.1985483169555664 0.17970849573612213 5.1659464836120605 81 85 88
0.18687255680561066 -0.22719283401966095 5.158082008361816 187 161 128
0.45065319538116455 0.1917811930179596 5.5140275955200195 133 139 137
0.5322481393814087 0.7061201333999634 5.2747931480407715 88 85 66
0.4486880600452423 -0.2788810729980469 5.773911952972412 179 179 167
0.6961224675178528 0.9033012986183167 5.971203327178955 178 178 188
-0.012380198575556278 -0.24920545518398285 4.91046667098999 88 69 62
-0.003342593787238002 -0.5486178994178772 4.882697582244873 103 78 71
0.01341463252902031 0.09649312496185303 4.9203572273254395 73 58 61
0.03189199045300484 0.310524046421051 4.966633319854736 74 55 51
0.3377113342285156 -0.4509468674659729 5.681456089019775 155 161 157
0.08727264404296875 0.3865887224674225 5.190351963043213 45 49 48
0.5342692732810974 0.6932186484336853 5.2843241691589355 84 88 63
0.12355364859104156 -0.2833375334739685 5.170130252838135 116 102 91
0.021141888573765755 0.40263551473617554 4.937739849090576 102 81 76
-0.019847536459565163 -0.3924961984157562 5.003523826599121 82 53 47
0.22757871448993683 -0.43199044466018677 5.34675931930542 221 215 193
0.012181457132101059 0.3771142363548279 5.816096305847168 83 85 71
0.455710232257843 -0.24239791929721832 5.759554862976074 168 170 148
0.29276496171951294 -0.12356177717447281 5.179304599761963 127 98 82
0.9791125059127808 0.6042920351028442 6.10556173324585 157 174 190
0.4006396532058716 0.8900719881057739 4.973038673400879 166 181 188
0.4732441306114197 -0.25245749950408936 5.628233909606934 191 156 134
0.3586263060569763 -0.24776014685630798 5.2894158363342285 192 150 126
0.29675841331481934 -0.32662954926490784 5.266563892364502 187 152 130
-0.05742213875055313 -0.6066020727157593 5.142060279846191 117 94 88
-0.0022849144879728556 -0.27309319376945496 4.993843078613281 71 59 59
0.49122846126556396 -0.075899139046669 5.432520866394043 165 140 118
0.4694729149341583 -0.1309555619955063 5.818491458892822 160 163 152
0.31213051080703735 0.3811609745025635 5.460228443145752 81 83 69
-0.017550036311149597 -0.5131959915161133 4.973762512207031 96 72 68
0.4883478581905365 -0.020495498552918434 5.703199863433838 163 169 165
0.4166089594364166 -0.021964117884635925 5.27656364440918 164 132 107
0.22624477744102478 0.4013780951499939 5.422302722930908 35 37 34
0.1758342981338501 -0.5317741632461548 5.502192497253418 186 173 164
0.017947625368833542 0.6692031621932983 5.025359630584717 63 46 38
0.03637627139687538 0.6004132628440857 4.993095397949219 91 63 62
0.6383674144744873 0.7886028289794922 5.514115333557129 209 184 154
0.24999530613422394 0.2512059211730957 5.224503993988037 86 95 94
0.40345877408981323 0.0119968606159091 5.270935535430908 55 48 40
0.31287071108818054 -0.10613374412059784 5.176229000091553 192 162 136
0.26863187551498413 -0.23172390460968018 5.209303379058838 192 163 133
0.4794069230556488 -0.01735771633684635 5.435267448425293 112 83 69
-0.12682287395000458 0.571328341960907 5.337686538696289 30 25 19
0.41827329993247986 0.21340088546276093 5.404119491577148 138 148 140
-0.04624251276254654 -0.44434189796447754 5.0334153175354 90 66 66
0.5090518593788147 0.7265617251396179 5.15023946762085 190 170 135
0.38983163237571716 0.7578817009925842 5.007390022277832 205 170 128
0.673905074596405 0.7919002175331116 5.593861103057861 218 224 224
0.019824834540486336 0.5437378287315369 5.0045857429504395 115 91 91
0.49559369683265686 0.051087021827697754 5.726888179779053 162 172 171
0.10261132568120956 0.5637837052345276 5.613369464874268 34 38 47
0.2895420789718628 -0.4541705548763275 5.46802282333374 142 151 146
0.17062684893608093 0.316003680229187 5.232086181640625 32 43 45
0.23330985009670258 -0.5132367014884949 5.544264316558838 237 238 220
-0.060834240168333054 -0.6257041692733765 5.151635646820068 135 113 102
0.3243517577648163 0.23469293117523193 5.308884143829346 129 136 129
0.3014504313468933 0.4039073884487152 5.505262851715088 41 39 44
0.07932256162166595 0.3568039536476135 5.151749134063721 50 48 51
-0.03453254699707031 -0.11752406507730484 4.9584856033325195 105 76 78
0.0755666047334671 0.15229012072086334 5.037814617156982 81 81 73
0.07541549205780029 0.45012322068214417 5.230179786682129 44 33 29
0.08816324919462204 0.4247640073299408 5.2783403396606445 48 48 50
-0.03900303691625595 -0.4880501925945282 5.025967597961426 80 61 57
0.43120914697647095 0.20507186651229858 5.420424461364746 120 132 122
0.03995935618877411 -0.24869495630264282 5.051077842712402 120 119 117
0.15130148828029633 0.07478649169206619 5.10649299621582 90 91 83
0.45615389943122864 -0.2570822834968567 5.777952671051025 178 179 161
0.2680736482143402 -0.4407753646373749 5.427807331085205 163 169 159
0.01516181230545044 0.0007435313891619444 4.923034191131592 110 98 86
0.4811042845249176 -0.05603017285466194 5.394554615020752 159 130 112
0.010650846175849438 -0.07336993515491486 4.911868572235107 63 52 46
-0.015041380189359188 -0.2998322546482086 4.936570644378662 77 55 44
0.6977814435958862 0.8940363526344299 5.973177433013916 216 222 218
0.4848150312900543 0.10298386961221695 5.490936756134033 122 129 113
0.03599807247519493 0.5947263240814209 5.039046287536621 102 77 72
-0.04647420719265938 -0.527945876121521 5.0113983154296875 85 65 58
0.373436838388443 -0.4195878207683563 5.661801338195801 217 221 204
0.002885499969124794 -0.21971875429153442 4.917701721191406 74 59 56
-0.0031370024662464857 0.6062036156654358 5.659831523895264 123 125 114
0.0546158067882061 0.4854018986225128 4.919091701507568 75 63 63
0.43081134557724 -0.01597745530307293 5.290616512298584 165 131 119
0.46328622102737427 0.11664176732301712 5.548172473907471 108 112 98
0.20901009440422058 0.07365349680185318 5.118413925170898 149 161 149
0.32247820496559143 0.9643000364303589 4.962111473083496 167 181 184
0.3701212704181671 -0.41636624932289124 5.666326522827148 217 221 204
-0.011527185328304768 -0.3602164387702942 4.922185897827148 71 61 51
0.4028841555118561 -0.38840147852897644 5.699206829071045 220 224 201
0.5078834295272827 -0.04060867428779602 5.657333850860596 128 133 126
0.022068537771701813 0.37117716670036316 5.017472743988037 50 46 43
0.27331608533859253 -0.4987388849258423 5.5954365730285645 236 237 221
-0.029026558622717857 -0.35823848843574524 5.0085296630859375 69 55 55
0.06556405127048492 0.14926889538764954 5.035226821899414 81 83 80
0.5329075455665588 0.665666401386261 5.299564361572266 107 106 86
0.05321468412876129 0.6122987270355225 5.035741329193115 92 72 71
0.4122908115386963 -0.3413654863834381 5.782129287719727 210 217 199
-0.04075571894645691 -0.4432264268398285 5.127312183380127 120 101 94
0.004942122846841812 -0.12941965460777283 4.934513092041016 99 70 66
0.16909383237361908 -0.47188135981559753 5.365860462188721 241 245 230
0.8956277370452881 0.6785348057746887 6.047196388244629 113 140 169
0.41960686445236206 -0.1694953888654709 5.320767402648926 160 122 103
0.4113757610321045 0.0012645669048652053 5.312193870544434 138 115 99
-0.03872920572757721 -0.5719582438468933 5.0458664894104 132 103 95
0.6361905932426453 0.8198691010475159 5.071123123168945 162 152 125
0.12630115449428558 0.5300746560096741 5.5969696044921875 44 50 48
0.03895556554198265 -0.0979459211230278 4.996164321899414 66 67 69
0.04797026887536049 0.5485477447509766 4.932189464569092 125 95 97
0.051877643913030624 0.6607060432434082 5.045894622802734 105 67 54
0.3642852008342743 0.3090605139732361 5.439543724060059 128 134 130
0.05256793648004532 0.5114808082580566 4.993288993835449 101 81 80
0.2413668930530548 -0.10980433970689774 5.145584583282471 168 140 119
0.0416366346180439 0.5279276967048645 5.110159873962402 54 50 51
0.3945264518260956 0.9379206299781799 4.981215000152588 158 166 177
0.4742003083229065 -0.1675187051296234 5.423191547393799 175 134 112
-0.01068747416138649 -0.38823652267456055 4.946170330047607 143 125 113
0.1340148001909256 -0.5190352201461792 5.646661281585693 221 228 221
0.39157921075820923 -0.38935327529907227 5.596521854400635 219 183 159
-0.1605057418346405 -0.6921099424362183 5.8996405601501465 113 94 96
-0.047089267522096634 -0.4953024387359619 5.113513946533203 73 57 58
0.3955465853214264 0.04617246985435486 5.2992424964904785 128 110 96
-0.051765188574790955 -0.4514232277870178 5.07748556137085 98 83 76
0.0077403332106769085 0.6528061032295227 5.225382328033447 78 63 58
0.026337534189224243 0.23531843721866608 4.922914505004883 112 87 82
0.4816511273384094 0.11113570630550385 5.695013999938965 155 162 168
0.6291518211364746 0.7862326502799988 5.598104953765869 225 198 169
0.011692920699715614 -0.02188500389456749 4.956521987915039 41 36 42
0.2942974269390106 -0.324217289686203 5.299780368804932 217 181 155
0.0652904137969017 0.5938633680343628 4.950719833374023 95 65 65
0.511559784412384 0.04273299500346184 5.575054168701172 107 77 75
0.6444970965385437 0.7315306067466736 5.138101100921631 210 189 144
0.48976364731788635 0.0307160597294569 5.470639228820801 101 73 69
0.4801340699195862 -0.1971849948167801 5.46665096282959 187 148 117
-0.005709758028388023 -0.3939826488494873 4.920798301696777 64 53 51
0.47141769528388977 -0.271011084318161 5.641152381896973 147 120 99
0.4561740458011627 -0.23494687676429749 5.499100208282471 179 148 120
0.195210799574852 0.08607854694128036 5.107847690582275 147 155 140
0.4347134232521057 0.00846067164093256 5.290605068206787 91 78 72
-0.2987399995326996 0.3329739570617676 6.1863250732421875 104 116 116
-0.009642630815505981 -0.5692735910415649 4.877199172973633 87 66 73
0.07958594709634781 0.053241096436977386 5.094863414764404 110 110 108
0.02503693662583828 0.4277215600013733 4.970937252044678 98 76 78
0.009453373961150646 -0.12944751977920532 4.897522449493408 92 68 66
-0.019847536459565163 -0.3924961984157562 5.003523826599121 82 53 47
0.6454111337661743 0.7158182859420776 5.096681118011475 185 154 107
-0.021465681493282318 -0.542654812335968 4.969292163848877 82 69 61
0.05636705458164215 0.05411270260810852 5.090348243713379 122 124 113
-0.04806174710392952 -0.3977451026439667 4.993048667907715 85 66 49
-0.15276265144348145 -0.6782019138336182 5.765400409698486 119 94 90
-0.005334917921572924 -0.24166548252105713 4.919292449951172 85 62 68
0.014157143421471119 -0.40261679887771606 5.113567352294922 137 139 138
0.6000579595565796 0.8153271675109863 5.398681163787842 175 156 142
0.4262838363647461 0.2247162014245987 5.720885753631592 90 94 95
0.7689108848571777 0.7894497513771057 5.6259331703186035 249 253 254
-0.0265756044536829 -0.4241172969341278 4.965862274169922 126 115 111
-0.11386258155107498 0.5336540341377258 6.251893043518066 166 228 253
0.4655100107192993 -0.16829627752304077 5.81345272064209 123 115 96
0.48731112480163574 -0.08926218003034592 5.786524772644043 145 158 141
0.23466680943965912 0.18117818236351013 5.175990581512451 135 151 150
0.3474414348602295 0.23462221026420593 5.318739414215088 143 158 153
0.13549502193927765 0.21541821956634521 5.178658962249756 76 82 82
0.045022811740636826 0.5230415463447571 4.938180923461914 89 60 65
0.34478116035461426 0.12279054522514343 5.216773986816406 167 177 168
0.20330612361431122 0.1311146467924118 5.142107009887695 82 81 87
-0.09592890739440918 -0.6259677410125732 5.300338268280029 111 88 82
0.5084155201911926 -0.11941130459308624 5.657968521118164 137 141 124
-0.009275179356336594 -0.44681331515312195 4.950084686279297 73 66 60
0.5030084252357483 0.015492496080696583 5.6042046546936035 129 107 84
-0.03912116587162018 -0.5780655145645142 5.035789966583252 113 83 81
0.45348644256591797 0.16061006486415863 5.749560832977295 131 122 127
-0.041027896106243134 -0.5903158783912659 5.016695499420166 104 76 65
0.5194595456123352 0.7547149658203125 5.349422454833984 17 38 23
0.02760092169046402 0.2669530510902405 5.030725002288818 42 32 43
-0.05415075272321701 -0.6375297904014587 5.1678147315979 121 92 84
0.03187102451920509 0.16004469990730286 4.985750675201416 56 40 50
-0.06957190483808517 -0.615395188331604 5.042166709899902 114 87 68
0.4148409366607666 -0.20505470037460327 5.335351467132568 90 79 73
0.6308811902999878 0.8615414500236511 5.507928848266602 180 159 116
-0.07193762809038162 -0.6295920014381409 5.091536521911621 116 86 86
0.042567212134599686 0.5304758548736572 5.14311408996582 81 59 48
0.044553134590387344 0.15082043409347534 4.975881576538086 56 40 50
0.07517059892416 -0.42502182722091675 5.271083831787109 195 198 177
0.042833779007196426 -0.03766608238220215 5.011341571807861 99 106 90
-0.044398315250873566 -0.4613758623600006 5.159222602844238 53 45 42
-0.060360707342624664 -0.5303225517272949 5.2248382568359375 72 58 57
0.009410032071173191 -0.29474306106567383 5.059475421905518 118 116 121
0.02156331203877926 -0.30166739225387573 5.050207614898682 118 116 121
0.11737222969532013 -0.3742900788784027 5.213450908660889 214 216 203
0.40098974108695984 -0.13731174170970917 5.310447692871094 180 142 123
0.1191256120800972 0.46078425645828247 5.265384197235107 53 52 47
0.12119999527931213 0.40303856134414673 5.231907367706299 42 44 39
0.046895891427993774 0.18560320138931274 5.039294719696045 77 89 89
-0.07247218489646912 -0.5653799772262573 5.296622276306152 75 59 46
0.874296247959137 0.6411771178245544 6.045219421386719 162 225 255
-0.03918760269880295 -0.3249780237674713 5.037800312042236 66 55 53
-0.0536632277071476 -0.5524001121520996 4.955874919891357 122 103 96
0.48520705103874207 -0.0903317853808403 5.456427097320557 181 175 163
0.4678492546081543 0.033501122146844864 5.3892974853515625 64 58 58
0.04508055001497269 0.3337656557559967 4.906453609466553 106 83 89
-0.038898568600416183 -0.6083431243896484 4.950346946716309 97 72 67
0.5896660685539246 0.861328125 5.350276947021484 103 81 58
0.5573233962059021 0.803778350353241 5.3484296798706055 65 60 56
0.41827329993247986 0.21340088546276093 5.404119491577148 135 147 133
0.41155290603637695 -0.2331095188856125 5.357056140899658 197 172 150
0.48345741629600525 -0.14242221415042877 5.585040092468262 178 189 173
0.5020233392715454 -0.08024302870035172 5.595499515533447 162 171 154
0.34621337056159973 -0.19165165722370148 5.257368564605713 205 181 157
0.11332704871892929 0.01424312312155962 5.089766025543213 98 99 93
0.04238774999976158 0.2648714780807495 5.026512622833252 42 32 43
0.10652121156454086 0.40624409914016724 5.197291374206543 38 40 37
0.05134911462664604 -0.5470685362815857 5.564957618713379 200 176 166
0.1260487288236618 0.46706849336624146 5.428080081939697 19 21 18
-0.10661334544420242 -0.7409089207649231 5.798942565917969 90 71 65
0.5688334703445435 0.9563701748847961 4.988640785217285 172 177 171
0.3520526885986328 -0.38554084300994873 5.477321624755859 215 192 160
0.03954829275608063 -0.19699911773204803 5.072640895843506 91 84 76
-0.009276521392166615 -0.36872151494026184 5.104574680328369 126 138 134
0.9360653758049011 0.610343873500824 6.066476821899414 104 129 159
0.24871568381786346 -0.15357749164104462 5.169493198394775 73 72 77
0.4280742406845093 -0.14497238397598267 5.349606513977051 127 95 84
0.41347867250442505 -0.19581764936447144 5.3544416427612305 188 157 136
0.015305622480809689 -0.45144200325012207 5.198793888092041 90 89 97
0.38606199622154236 -0.22887705266475677 5.338819980621338 142 116 103
0.5001956820487976 -0.12314341962337494 5.555083274841309 170 179 162
0.45092636346817017 -0.2160172462463379 5.508715629577637 181 157 129
0.3972429931163788 -0.1682632714509964 5.262447834014893 185 152 133
0.9491406083106995 0.5930107831954956 6.095513820648193 219 229 239
0.06618991494178772 -0.5360793471336365 5.515613555908203 184 164 155
-0.07696782052516937 -0.5946888327598572 5.333522796630859 87 60 53
0.0633092075586319 -0.4585282504558563 5.306251525878906 159 151 138
0.49043160676956177 -0.13622599840164185 5.538327693939209 187 191 176
0.17799490690231323 -0.16490358114242554 5.133523941040039 187 161 124
-0.2958602011203766 0.6230325102806091 5.88944673538208 29 38 37
0.4112587571144104 0.10108453035354614 5.304741859436035 142 149 142
0.3037719130516052 0.08913587033748627 5.174142360687256 159 178 174
0.4088965058326721 0.15321169793605804 5.344241619110107 150 162 160
0.14898833632469177 -0.541100025177002 5.61522102355957 222 209 192
0.427498459815979 -0.2720320224761963 5.481393337249756 209 186 170
0.4772284924983978 -0.10176560282707214 5.476280689239502 87 68 61
0.3880033493041992 0.0759696438908577 5.2831339836120605 49 50 54
0.6854098439216614 0.8608863353729248 5.5153727531433105 168 144 100
0.28693002462387085 -0.4422445297241211 5.548144340515137 136 130 116
0.5907956957817078 0.8583407998085022 5.326855182647705 56 44 46
0.4246441423892975 -0.2645585238933563 5.4328179359436035 119 101 89
0.454585999250412 -0.21904686093330383 5.553443908691406 189 164 144
0.021010149270296097 -0.03269866108894348 4.906369686126709 120 99 98
0.4325307309627533 -0.20515291392803192 5.375136852264404 189 160 142
-0.02085091359913349 -0.41754359006881714 5.153136253356934 124 132 135
0.36747878789901733 -0.35737353563308716 5.422659397125244 217 201 185
-0.11969871073961258 -0.7786363959312439 5.965428352355957 102 90 74
0.6874417066574097 0.8251342177391052 5.432826519012451 130 120 118
0.15123775601387024 -0.3764477074146271 5.265085697174072 207 211 184
0.11986206471920013 0.1409490555524826 5.109521865844727 92 101 100
0.4622950553894043 0.1537349820137024 5.4358673095703125 77 87 76
0.5105457305908203 0.6800371408462524 5.168428897857666 176 154 117
-0.0626838430762291 -0.6824900507926941 6.013509750366211 198 181 151
0.4576296806335449 -0.2269296646118164 5.51370096206665 181 140 118
0.2663346827030182 -0.18601249158382416 5.169342041015625 185 166 149
0.2327928990125656 -0.1665283888578415 5.1620049476623535 178 155 137
0.23816417157649994 1.0462982654571533 4.912458896636963 99 104 108
0.3959350287914276 0.04871150106191635 5.271848201751709 65 61 58
0.4232577979564667 -0.30532369017601013 5.716721057891846 200 206 192
0.4484613239765167 0.16915255784988403 5.433510780334473 146 154 139
-0.10660652816295624 -0.7737189531326294 5.891112804412842 82 83 67
0.24680495262145996 -0.17330347001552582 5.170164108276367 95 81 68
0.39437729120254517 -0.3108609616756439 5.480868339538574 198 182 157
0.5025349855422974 -0.037246860563755035 5.624168872833252 161 169 146
0.1861424297094345 0.27050071954727173 5.21563720703125 52 54 53
0.417375385761261 0.22824522852897644 5.454562664031982 135 146 138
0.36940133571624756 -0.3937114477157593 5.517495155334473 209 182 163
0.05281975492835045 -0.30385637283325195 5.160287857055664 186 189 168
0.400896281003952 -0.2199878692626953 5.3505401611328125 189 156 137
0.6382906436920166 0.9015645980834961 5.279293060302734 34 26 23
-0.1488559991121292 -0.797683596611023 5.829139232635498 202 193 176
0.3199869394302368 -0.2464544028043747 5.3035101890563965 206 172 147
0.4802619516849518 -0.11028091609477997 5.7380547523498535 169 171 158
0.2785813808441162 -0.2825629711151123 5.243948459625244 120 110 101
0.4788016080856323 0.02568087726831436 5.44907283782959 143 126 108
0.4949890077114105 -0.05914553999900818 5.511482238769531 149 146 131
0.42002764344215393 -0.23631246387958527 5.3929853439331055 192 171 154
0.48440247774124146 -0.20982179045677185 5.55502462387085 182 165 139
0.01585470698773861 -0.48208826780319214 5.2508392333984375 66 77 83
0.12447551637887955 0.20076949894428253 5.138062953948975 80 91 87
0.47656407952308655 -0.1865277737379074 5.534169673919678 185 165 141
0.37000125646591187 -0.02935248240828514 5.216160297393799 156 127 109
0.4321446716785431 0.9180980920791626 4.966831684112549 177 194 204
0.318872332572937 -0.18430611491203308 5.22481632232666 192 172 145
0.4112101197242737 0.24386261403560638 5.602137565612793 122 124 119
0.44382089376449585 0.026700900867581367 5.331577301025391 146 125 106
0.4288601875305176 -0.23459184169769287 5.8177924156188965 116 109 90
0.48059606552124023 -0.16118782758712769 5.580052852630615 198 205 174
0.7145130038261414 0.7334195375442505 5.064672946929932 177 146 102
0.4400711953639984 -0.2457120716571808 5.466905117034912 193 164 134
0.42815181612968445 -0.2487577646970749 5.872427940368652 177 182 159
0.4368121325969696 -0.2906622886657715 5.56563663482666 190 165 145
0.4132229685783386 0.06471284478902817 5.307196140289307 67 62 66
0.45655789971351624 0.1330011934041977 5.428712844848633 80 86 76
0.38798269629478455 0.13228096067905426 5.305017471313477 62 73 65
0.29904061555862427 -0.3436031937599182 5.3497843742370605 213 192 173
0.4181241989135742 -0.2655012011528015 5.419157028198242 192 174 150
-0.10598145425319672 -0.6260509490966797 5.305754661560059 119 77 78
0.04491197690367699 -0.6577277779579163 5.430488109588623 101 119 129
0.41092851758003235 -0.09878288209438324 5.3014302253723145 172 148 122
0.38061195611953735 0.24282386898994446 5.344374179840088 144 156 144
0.49929243326187134 -0.07557269185781479 5.6438398361206055 151 164 157
0.47166770696640015 0.016726458445191383 5.39741325378418 125 119 103
0.33103883266448975 -0.3214840590953827 5.340324878692627 206 177 159
0.05833890661597252 -0.5401553511619568 5.478024959564209 142 129 120
0.4919150471687317 0.1211610659956932 5.574102401733398 149 160 152
0.4866468012332916 0.12488158792257309 5.5051140785217285 94 101 94
0.2667046785354614 -0.28403186798095703 5.250293731689453 120 110 101
0.09146299213171005 0.5763875246047974 5.567956447601318 27 29 24
0.5020476579666138 -0.16177386045455933 5.628219127655029 176 174 151
0.026284033432602882 -0.29204151034355164 5.119231700897217 70 80 71
-0.0038458213675767183 -0.35064879059791565 5.08696985244751 137 141 140
-0.013765987940132618 -0.5599698424339294 5.483088970184326 39 42 35
0.06466321647167206 0.22326840460300446 4.9962077140808105 38 39 41
0.34518274664878845 0.04019423946738243 5.203662395477295 163 172 155
0.41705119609832764 -0.2632797658443451 5.437232494354248 119 101 89
0.4797353446483612 -0.18200568854808807 5.607547283172607 66 67 62
0.11154162883758545 0.5419823527336121 5.569000720977783 65 62 57
0.3386214077472687 -0.11782912909984589 5.187780380249023 138 104 95
0.45183485746383667 0.20599128305912018 5.476785659790039 142 147 141
0.6383674144744873 0.7886028289794922 5.514115333557129 204 179 139
0.5409743189811707 0.7359467148780823 5.558703422546387 47 73 70
0.2827894687652588 -0.18144427239894867 5.214129447937012 203 181 160
0.30787166953086853 0.12562234699726105 5.167361259460449 158 170 170
0.2731614112854004 -0.05562997981905937 5.142163276672363 161 141 117
0.5386849641799927 0.6412594318389893 5.215275764465332 158 151 122
-0.06028549373149872 -0.6602432131767273 5.2254743576049805 113 93 94
0.0385679192841053 -0.15727517008781433 4.95200777053833 66 60 60
0.2665347456932068 -0.3800157606601715 5.326715469360352 142 142 132
0.4654431641101837 0.053583357483148575 5.397825241088867 74 61 52
0.5936599969863892 0.7941035628318787 5.4998064041137695 141 141 141
0.3460904061794281 0.1398509442806244 5.221631050109863 137 146 143
0.4319201111793518 -0.2740428149700165 5.69821310043335 103 95 76
0.5185941457748413 0.017827128991484642 5.554783821105957 139 116 100
0.4714782238006592 -0.1541208028793335 5.527503967285156 99 92 82
0.27467986941337585 -0.3577292859554291 5.3447370529174805 131 114 107
0.48843690752983093 -0.06190212815999985 5.619809627532959 152 159 143
0.24198181927204132 -0.34586310386657715 5.292806148529053 203 176 159
0.34317639470100403 -0.3343886435031891 5.3868184089660645 203 182 163
0.37459465861320496 -0.37778350710868835 5.513503551483154 116 91 95
0.41477271914482117 0.045861028134822845 5.330261707305908 135 109 92
0.4879259467124939 -0.08052647113800049 5.5524821281433105 172 171 153
0.4673096239566803 0.11025272309780121 5.417231559753418 87 89 78
-0.05834392085671425 -0.6439349055290222 5.080702304840088 133 105 104
0.49248239398002625 -0.01962202414870262 5.560850143432617 103 78 71
0.48302823305130005 0.016231171786785126 5.430484294891357 80 58 61
0.5666586756706238 0.8469019532203674 4.9950995445251465 171 171 169
0.26379579305648804 -0.4665507376194 5.648895740509033 230 238 217
0.3947507441043854 0.1769234985113144 5.3387346267700195 155 167 163
0.4608969986438751 -0.2671891450881958 5.677896499633789 145 121 97
0.4826611578464508 -0.1840057373046875 5.590561866760254 75 76 68
0.4509654641151428 -0.25910821557044983 5.5812668800354 190 176 150
0.13858969509601593 0.7214608788490295 5.124063014984131 135 116 84
0.4377230107784271 -0.22137825191020966 5.420287132263184 198 174 150
0.31676316261291504 -0.2111544907093048 5.233152866363525 146 114 99
0.650438129901886 0.8951652646064758 5.460355758666992 59 57 44
0.495342880487442 0.01430639997124672 5.557886123657227 140 111 93
0.47762343287467957 -0.08949746191501617 5.438880920410156 152 115 99
0.44551220536231995 -0.09538809210062027 5.404631614685059 164 145 128
0.2973729074001312 -0.35752004384994507 5.329784393310547 131 114 107
0.15850108861923218 -0.14715956151485443 5.136236667633057 63 54 55
0.4795653522014618 0.09035052359104156 5.551610946655273 60 56 47
0.18904045224189758 -0.3293185532093048 5.522295951843262 153 122 104
0.38798269629478455 0.13228096067905426 5.305017471313477 62 73 65
0.3416326940059662 0.057818394154310226 5.207150459289551 173 174 176
0.37402963638305664 -0.3161652386188507 5.378601551055908 204 175 145
0.5104261040687561 0.9948679208755493 5.030308246612549 172 165 146
0.39870068430900574 -0.052297092974185944 5.250004768371582 159 128 108
0.4718800187110901 0.0181678906083107 5.771507263183594 161 169 171
0.4731709957122803 -0.12418118864297867 5.835906505584717 128 130 125
0.5329075455665588 0.665666401386261 5.299564361572266 103 106 89
0.24642017483711243 0.44384440779685974 5.51320219039917 50 50 40
0.07923204451799393 0.06188521534204483 5.081427574157715 66 67 69
-0.0788063183426857 -0.6687341928482056 5.289607524871826 107 82 77
0.1723615676164627 0.3244703710079193 5.263083457946777 44 49 43
0.31531256437301636 0.09530610591173172 5.187887191772461 60 72 70
0.3502773344516754 -0.3414837718009949 5.428366661071777 102 92 91
0.5915147662162781 0.8472437262535095 5.344583511352539 125 112 103
0.45565876364707947 0.20753200352191925 5.568995952606201 143 153 152
0.03501702472567558 0.05346308648586273 5.00941276550293 80 96 96
0.3555421233177185 -0.09395070374011993 5.267705917358398 163 131 118
0.3857100009918213 -0.26406142115592957 5.321850776672363 157 128 114
0.4577840268611908 -0.22475522756576538 5.462330341339111 201 175 150
-0.13540895283222198 -0.7167801856994629 5.798375129699707 121 98 92
0.27269312739372253 -0.25244832038879395 5.251781940460205 159 133 120
0.4027006924152374 0.18866971135139465 5.3457536697387695 83 102 108
0.3763290345668793 -0.2950541377067566 5.401756763458252 211 184 157
0.48557236790657043 -0.2252320498228073 5.659367084503174 175 157 121
-0.03059655800461769 -0.7122896313667297 5.459009647369385 181 160 141
0.05135524645447731 0.7043119668960571 5.0840325355529785 75 49 36
-0.09664144366979599 -0.6306495666503906 5.965911865234375 121 115 89
0.3021085560321808 -0.1392146646976471 5.196811199188232 193 165 141
0.3251446783542633 -0.310575395822525 5.334390640258789 115 112 107
0.40996289253234863 -0.08672475814819336 5.335047245025635 82 64 60
0.46839532256126404 0.07843117415904999 5.419024467468262 138 148 124
0.46152377128601074 0.131550595164299 5.4479660987854 137 149 139
0.31327396631240845 -0.1247883290052414 5.197465419769287 138 104 95
0.40198421478271484 -0.0016486314125359058 5.234029293060303 144 126 114
0.43472597002983093 0.23879805207252502 5.496013641357422 119 132 122
0.42673221230506897 -0.06221998110413551 5.282238960266113 167 146 119
0.1785658448934555 -0.13714975118637085 5.125248908996582 164 134 108
0.49668174982070923 0.07716326415538788 5.5346999168396 63 53 54
0.45574337244033813 -0.06666551530361176 5.469311237335205 142 115 88
0.30861833691596985 0.09936977177858353 5.1920294761657715 60 72 70
0.49805986881256104 -0.18425710499286652 5.693620204925537 158 138 103
0.4860529601573944 -0.0001571406319271773 5.436378002166748 146 119 92
0.4114311635494232 -0.18478046357631683 5.324293613433838 187 159 135
0.16818778216838837 0.5243556499481201 5.796665668487549 83 82 62
0.36320561170578003 -0.32594528794288635 5.41347074508667 196 174 153
0.43784138560295105 -0.25914880633354187 5.441634178161621 207 186 169
0.031023042276501656 -0.5831236243247986 5.413830757141113 34 39 35
0.2809547483921051 -0.27299779653549194 5.260136127471924 193 170 152
0.4780730605125427 0.030256953090429306 5.426008224487305 143 114 98
0.4277574121952057 0.06942150741815567 5.310346603393555 145 126 109
0.18990257382392883 -0.32261356711387634 5.222771167755127 191 179 157
0.42870843410491943 0.9729165434837341 4.947668075561523 147 160 168
-0.11200369894504547 -0.7987003922462463 5.876312255859375 200 185 164
0.45172789692878723 0.18099890649318695 5.6152215003967285 136 156 157
0.408288836479187 0.06445164233446121 5.277901649475098 126 119 109
0.47373950481414795 -0.03803433105349541 5.428486347198486 140 116 92
0.5005343556404114 -0.1648690551519394 5.673641681671143 178 177 157
0.49394601583480835 -0.11639989912509918 5.5143656730651855 174 179 159
0.33330270648002625 -0.35225942730903625 5.404435634613037 207 192 163
0.2702246606349945 0.052441127598285675 5.158111572265625 162 170 157
0.4646339416503906 0.1472829431295395 5.418781757354736 151 157 143
0.25568658113479614 -0.43830394744873047 5.5391998291015625 139 122 112
-0.02249913662672043 -0.38517823815345764 5.104991436004639 90 90 92
0.2988533675670624 -0.39376118779182434 5.43004035949707 212 188 164
0.49565136432647705 0.06540510058403015 5.535836219787598 66 45 42
0.40297192335128784 0.09120212495326996 5.290197849273682 150 153 146
0.2962656617164612 -0.47538796067237854 5.625773906707764 230 238 217
0.007908033207058907 -0.519671618938446 5.247443199157715 140 144 145
0.4028140902519226 -0.21132956445217133 5.323288917541504 187 164 146
0.33825960755348206 -0.28082332015037537 5.3141326904296875 211 181 155
0.1505693644285202 -0.22075296938419342 5.3459672927856445 146 114 99
0.40484166145324707 0.8169140219688416 4.956515789031982 146 123 92
0.5934309363365173 0.8716360926628113 5.342353343963623 123 101 78
-0.0017582193249836564 -0.3481123745441437 5.086822986602783 137 141 140
0.1136980727314949 -0.18074174225330353 5.103547096252441 154 123 95
0.29732388257980347 -0.4465169906616211 5.4802398681640625 167 161 147
0.3206772208213806 -0.2104101926088333 5.24686336517334 189 168 151
0.44653746485710144 -0.18347686529159546 5.3550567626953125 186 151 123
0.27117013931274414 0.16917216777801514 5.159293174743652 112 112 114
0.4091624915599823 -0.2831999659538269 5.42863130569458 142 121 100
0.45323508977890015 -0.1056441143155098 5.377874851226807 89 74 71
0.2513282597064972 -0.4649532437324524 5.525486469268799 235 245 236
0.41105902194976807 -0.2934614419937134 5.478954315185547 212 192 165
0.32577961683273315 -0.45572176575660706 5.705896854400635 156 174 174
0.03214506059885025 0.02817228063941002 4.968985557556152 41 40 46
0.40793028473854065 0.1878957897424698 5.3417792320251465 83 102 108
0.05704856291413307 0.5696742534637451 4.972965717315674 114 93 90
-0.14302949607372284 -0.6319175958633423 5.40325927734375 94 64 62
0.507379949092865 0.052893102169036865 5.613402366638184 118 104 91
0.2054450660943985 -0.4030197560787201 5.312484264373779 212 215 194
0.32289987802505493 -0.4609851837158203 5.52965784072876 228 233 213
0.3200951814651489 0.00622937735170126 5.179856777191162 167 179 159
0.4869404435157776 0.8231260180473328 4.954089164733887 137 115 102
0.4911970794200897 -0.10191799700260162 5.662988662719727 156 162 148
0.4597473740577698 -0.08834036439657211 5.375537872314453 155 138 118
-0.0022849144879728556 -0.27309319376945496 4.993843078613281 68 62 62
0.46065753698349 -0.21438410878181458 5.812234401702881 111 90 73
0.38108542561531067 0.20236940681934357 5.360136032104492 152 158 144
0.32089850306510925 -0.34367361664772034 5.337428092956543 213 192 173
0.4118342697620392 -0.1867392212152481 5.342184066772461 144 111 96
0.07616738229990005 0.23382322490215302 5.031871795654297 59 73 76
-0.03474597632884979 -0.601446270942688 5.046325206756592 122 105 98
0.29518944025039673 -0.25999611616134644 5.261589527130127 158 129 125
0.44820669293403625 0.23309051990509033 5.586032390594482 124 131 113
0.38647645711898804 -0.27488428354263306 5.39474630355835 187 155 142
