ply
format ascii 1.0
element vertex 687
property float x
property float y
property float z
property uchar red
property uchar green
property uchar blue
end_header
0.14295217394828796 0.02542213164269924 4.506386756896973 144 132 134
0.1537742167711258 -0.12006090581417084 4.499716281890869 114 109 116
0.15179762244224548 -0.2929173409938812 4.279962062835693 119 94 97
0.15668967366218567 -0.4321085512638092 4.28073263168335 125 113 117
-0.21087150275707245 -0.29513445496559143 3.8846235275268555 214 189 159
-0.24219854176044464 -0.20655803382396698 3.9817700386047363 111 98 92
-0.31156495213508606 -0.14991725981235504 3.785790205001831 187 179 166
0.07147546112537384 0.719110369682312 4.5093817710876465 29 23 23
-0.11163223534822464 -0.22770698368549347 4.083533763885498 188 169 152
0.1483820229768753 -0.022205326706171036 4.502020359039307 128 119 124
-0.1664486527442932 -0.3159659206867218 3.8620622158050537 130 133 116
-0.41363325715065 0.5250956416130066 4.402561187744141 172 159 125
-0.11585615575313568 0.022664248943328857 4.191251754760742 154 174 175
0.14022798836231232 -0.18306028842926025 4.432395935058594 108 94 93
-0.204242542386055 -0.2791133522987366 3.8009531497955322 186 171 148
0.14540943503379822 -0.2097807228565216 4.468466281890869 115 106 109
-0.25761309266090393 0.22909007966518402 3.903931140899658 44 51 43
-0.29846853017807007 -0.010992121882736683 3.988333225250244 55 47 44
0.0730704665184021 -0.24805597960948944 4.108273983001709 177 179 165
0.049133192747831345 0.8746978640556335 4.582855701446533 56 58 106
-0.21825042366981506 0.20150600373744965 4.037299156188965 134 141 123
0.15579000115394592 -0.40442955493927 4.304675102233887 130 108 111
-0.3116128742694855 -0.13036289811134338 3.8893353939056396 64 66 63
0.07790621370077133 -0.12938664853572845 4.189126968383789 95 91 88
0.10198668390512466 0.3526734709739685 4.492311000823975 117 103 100
-0.2864183783531189 -0.09783011674880981 3.993520975112915 71 58 49
0.10692738741636276 0.33547961711883545 4.357538223266602 55 45 46
0.030929891392588615 0.06438464671373367 4.211625099182129 101 107 107
-0.2981600761413574 -0.010808748193085194 3.9882540702819824 55 47 44
0.07720787078142166 -0.5013216733932495 3.8446550369262695 197 175 164
0.1467575877904892 -0.2861008644104004 4.325855731964111 121 103 103
0.14151720702648163 -0.2291603684425354 4.307216167449951 121 107 104
-0.7660616636276245 0.5143901705741882 3.739013433456421 24 28 76
0.1412433683872223 -0.15628553926944733 4.470842361450195 111 100 98
0.1494731605052948 -0.1320822387933731 4.496974945068359 69 60 77
0.1534414291381836 -0.3965461552143097 4.23798131942749 75 63 67
-0.1524444967508316 -0.06885143369436264 4.162902355194092 157 136 117
-0.15391962230205536 -0.3165811002254486 3.9069857597351074 215 215 189
0.16968141496181488 -0.5127078294754028 4.207718849182129 199 181 171
-0.7994930148124695 0.649838387966156 4.251069068908691 51 53 48
-0.28996995091438293 -0.15939942002296448 3.9093315601348877 185 167 163
-0.3203051686286926 0.10825690627098083 3.842005491256714 153 172 168
0.15376940369606018 -0.31739118695259094 4.477173805236816 65 61 62
-0.8294861316680908 0.6701880693435669 4.291527271270752 215 215 189
-0.3065384030342102 0.09239191561937332 3.947425365447998 81 86 80
-0.22783391177654266 -0.24218040704727173 3.6686744689941406 220 231 217
-0.5396353006362915 0.6268263459205627 4.077241897583008 195 210 215
-0.22819671034812927 -0.04685017466545105 4.104165554046631 159 128 108
-0.28992268443107605 -0.15945430099964142 3.9293625354766846 192 185 175
0.15316322445869446 -0.39206457138061523 4.217155456542969 57 57 57
-0.31789374351501465 0.09699377417564392 3.8574509620666504 153 161 146
-0.13375963270664215 -0.04392613098025322 4.175162315368652 88 90 85
-0.1436707228422165 0.006499249953776598 4.167298793792725 162 179 173
-0.7426807284355164 0.5420889854431152 3.6533567905426025 32 41 80
-0.2512613832950592 -0.24752530455589294 3.867001533508301 192 187 181
-0.2170223742723465 -0.28415730595588684 3.7754030227661133 220 223 204
-0.15074096620082855 -0.009532338939607143 4.170993804931641 164 167 158
0.16650474071502686 -0.3408212661743164 4.482735633850098 172 154 154
-0.06560405343770981 -0.27046266198158264 4.068734169006348 211 190 159
-0.3110741972923279 -0.09374414384365082 3.6972925662994385 57 53 44
0.13068489730358124 -0.36767709255218506 3.465026617050171 116 90 91
-0.1486208438873291 -0.026503073051571846 4.170195579528809 170 172 148
0.11663706600666046 0.35358208417892456 4.518656253814697 115 115 107
-0.23897823691368103 0.053403470665216446 4.095186233520508 102 115 105
0.0718199610710144 -0.26828595995903015 4.08981990814209 172 173 155
0.14434370398521423 -0.14909762144088745 4.466312408447266 74 64 73
0.19676683843135834 0.7223073244094849 4.585338592529297 152 217 255
-0.7852458357810974 0.6384511590003967 4.335580348968506 174 186 164
-0.33156079053878784 -0.036292899399995804 3.8378546237945557 107 104 95
0.1581977903842926 -0.1756775826215744 4.499348163604736 178 164 151
0.11570654809474945 0.2787495255470276 4.506171703338623 130 115 118
-0.16703467071056366 -0.320039838552475 3.807281970977783 133 136 117
0.1705290675163269 -0.18436074256896973 4.503942012786865 82 86 85
-0.3270854651927948 0.05848574638366699 3.786736249923706 106 112 110
-0.7063582539558411 0.7331236600875854 3.9492273330688477 99 89 97
0.1406116485595703 -0.1268993467092514 4.357464790344238 69 60 63
-0.3059408366680145 0.4660029411315918 4.161371231079102 200 203 182
-0.22406016290187836 -0.16274046897888184 4.05782413482666 129 111 91
-0.069060780107975 0.03654425963759422 4.2029643058776855 55 72 82
-0.23535265028476715 0.06270192563533783 4.097590446472168 157 166 161
-0.31143078207969666 -0.12765847146511078 3.8768692016601562 51 56 49
-0.05196402966976166 0.029431959614157677 4.2103962898254395 153 172 168
-0.26864179968833923 0.025306863710284233 4.056009292602539 129 132 121
-0.31671008467674255 -0.1094493567943573 3.7450907230377197 86 90 93
-0.3296029269695282 -0.03127692639827728 3.8621697425842285 78 86 88
0.14438147842884064 -0.24860800802707672 4.2016987800598145 163 154 157
0.14255784451961517 -0.37608885765075684 4.038848876953125 70 59 65
-0.25606265664100647 -0.22712774574756622 3.72296142578125 99 107 110
-0.17106322944164276 -0.3010081946849823 3.907428503036499 218 200 178
0.16249583661556244 -0.3676483631134033 4.460019588470459 148 127 132
-0.12090452015399933 -0.3222871422767639 3.9334633350372314 172 177 155
0.1283063292503357 -0.03512311354279518 4.418673038482666 122 106 106
-0.3210071325302124 0.4770427644252777 4.442190170288086 115 104 100
-0.30276259779930115 -0.11679840087890625 3.9388318061828613 75 76 70
-0.8027365803718567 0.6519492268562317 4.241897106170654 177 186 165
-0.6601861119270325 0.6365875005722046 4.457942485809326 160 168 155
-0.27483394742012024 -0.21843817830085754 3.802598237991333 91 92 94
0.15424540638923645 -0.43638062477111816 4.2957282066345215 75 67 64
-0.12318599224090576 0.13507865369319916 4.165463924407959 131 142 138
-0.16203488409519196 0.20733991265296936 4.090254783630371 71 77 77
-0.28693777322769165 -0.1552245318889618 3.670133113861084 200 208 187
-0.7886714935302734 0.6471589207649231 4.331511497497559 52 51 46
0.16546326875686646 -0.48989978432655334 4.2310791015625 143 125 115
-0.11356440931558609 -0.2857721447944641 4.021356105804443 190 170 146
0.16521117091178894 -0.2980027496814728 4.480277061462402 141 126 123
0.15065769851207733 -0.18958128988742828 4.478796005249023 60 54 68
0.144647479057312 -0.19696013629436493 4.44996976852417 110 95 92
0.16790932416915894 0.13107864558696747 4.529487609863281 146 138 151
-0.7819868922233582 0.6457651853561401 4.216245174407959 174 180 166
-0.21787020564079285 -0.27790597081184387 3.8263254165649414 202 176 163
0.014622533693909645 -0.27510514855384827 4.082466125488281 213 217 202
-0.03649601712822914 0.49668487906455994 4.447537899017334 191 165 114
-0.3024938702583313 -0.07293920964002609 3.6528193950653076 161 172 164
-0.21005664765834808 0.19674524664878845 4.060011386871338 69 78 77
0.15925021469593048 -0.4115338623523712 4.083715438842773 126 110 113
-0.08993157744407654 -0.3220052719116211 3.969855308532715 224 224 200
0.1557653844356537 -0.37180885672569275 4.165469169616699 125 109 109
-0.3346417248249054 -0.04459729418158531 3.845181941986084 160 168 153
-0.17836257815361023 -0.111210398375988 4.126044273376465 169 151 129
0.13607299327850342 0.08604994416236877 4.507298469543457 137 127 136
-0.8488219976425171 0.7015739679336548 4.342937469482422 127 132 136
-0.2736700177192688 0.07260573655366898 4.033997058868408 146 152 148
0.04697356000542641 -0.07782528549432755 4.203714370727539 128 134 122
-0.23997850716114044 0.06499961763620377 4.09030818939209 99 114 109
-0.08806435763835907 0.12109836935997009 4.179662227630615 124 142 154
-0.12516671419143677 0.0625222772359848 4.179281711578369 77 87 89
-0.15992704033851624 -0.3174939453601837 3.87284779548645 234 225 196
-0.26895174384117126 0.0859871432185173 4.025238990783691 142 149 142
-0.279646098613739 0.4612635672092438 4.287295818328857 79 57 34
-0.12297436594963074 -0.3063409924507141 3.9634664058685303 196 178 164
0.14774638414382935 0.0052891504019498825 4.514486789703369 76 66 74
-0.11954060196876526 -0.3332558870315552 3.90179181098938 223 233 208
0.13466767966747284 -0.13075973093509674 4.328379154205322 76 60 61
-0.1878407746553421 -0.3032926619052887 3.7566606998443604 144 153 148
0.09125476330518723 -0.3001849949359894 4.0899505615234375 123 125 114
-0.7828748226165771 0.6626638174057007 4.204890727996826 33 35 30
0.15645337104797363 -0.4318391978740692 4.280452251434326 125 113 117
-0.08200255036354065 0.12912270426750183 4.183709621429443 40 71 92
-0.09348294138908386 -0.2998616099357605 4.0151472091674805 218 201 181
0.14622604846954346 -0.19732923805713654 4.459311008453369 71 60 66
-0.3328658938407898 -0.03146032616496086 3.8781330585479736 77 87 78
-0.15158338844776154 -0.2910900413990021 3.972710371017456 211 188 170
-0.7895199656486511 0.6359519362449646 4.321450710296631 67 68 62
-0.2669665217399597 0.02561374194920063 4.0553364753723145 129 132 121
-0.2544781565666199 -0.17369571328163147 3.636319637298584 195 208 190
0.15778903663158417 -0.2761874496936798 4.181973934173584 71 61 59
-0.11370660364627838 -0.3390911817550659 3.8912322521209717 154 163 158
-0.293941855430603 -0.15300530195236206 3.7202138900756836 118 123 116
0.14540943503379822 -0.2097807228565216 4.468466281890869 115 106 109
-0.345872163772583 0.5052630305290222 4.315333366394043 56 39 29
0.2217414528131485 0.7936599850654602 4.589585304260254 153 219 254
-0.2964160740375519 -0.17463310062885284 3.8518807888031006 150 123 112
0.14395299553871155 -0.24118514358997345 4.380490303039551 114 94 95
-0.7623891234397888 0.5205200910568237 3.7420732975006104 111 145 172
0.15959884226322174 -0.1386793553829193 4.502436637878418 169 147 149
-0.287854939699173 -0.15188252925872803 3.7166647911071777 118 123 116
0.12433630973100662 0.05749986693263054 4.405797958374023 118 102 102
-0.21169668436050415 -0.2886790335178375 3.8321824073791504 215 190 185
-0.32364755868911743 -0.0999191477894783 3.8211987018585205 178 192 169
0.1537742167711258 -0.12006090581417084 4.499716281890869 114 109 116
0.05677630007266998 -0.11488752067089081 4.188738822937012 139 114 107
-0.41940414905548096 0.5784894227981567 4.405066967010498 171 163 127
0.14520074427127838 -0.1834072768688202 4.341889381408691 125 106 108
-0.14035378396511078 -0.11424233019351959 4.152499198913574 117 92 85
-0.31706395745277405 -0.037141308188438416 3.922532081604004 157 138 108
-0.29449984431266785 -0.1566251516342163 3.706879138946533 76 85 82
-0.44327864050865173 0.6203964948654175 4.135457515716553 100 93 67
-0.09811051189899445 0.13937139511108398 4.166916370391846 120 137 145
-0.2761067748069763 0.4157487452030182 4.293790817260742 231 237 235
-0.04334631562232971 0.438081830739975 3.7364649772644043 93 98 76
-0.3291090428829193 -0.010848639532923698 3.888317108154297 47 48 43
0.16141310334205627 -0.24609188735485077 4.492888450622559 145 129 130
-0.3258710205554962 -0.07466863095760345 3.733132839202881 42 47 43
0.16969938576221466 -0.467426598072052 3.4146838188171387 85 87 84
-0.8075140714645386 0.6603106260299683 4.254237174987793 159 171 161
-0.29748183488845825 -0.13817740976810455 3.6947691440582275 184 180 171
0.14907340705394745 -0.2565297484397888 4.1973066329956055 83 74 75
0.17136801779270172 -0.45176148414611816 3.3477931022644043 104 102 89
-0.3296029269695282 -0.03127692639827728 3.8621697425842285 78 86 88
0.09853053092956543 0.4570019841194153 4.5227766036987305 74 65 82
-0.2166561782360077 0.1141105592250824 4.097814559936523 77 84 92
-0.07793299853801727 -0.31468623876571655 4.003501892089844 205 205 177
-0.305253267288208 0.025900306180119514 3.6480445861816406 163 182 178
-0.5971084833145142 0.6429008841514587 4.119180679321289 124 122 143
-0.3258710205554962 -0.07466863095760345 3.733132839202881 42 47 43
-0.3026096224784851 -0.12965616583824158 3.916640043258667 167 167 143
-0.22993026673793793 -0.04720733314752579 4.104828357696533 159 128 108
-0.3270854651927948 0.05848574638366699 3.786736249923706 106 112 110
-0.17526909708976746 0.006021186243742704 4.154231071472168 160 171 154
0.17553438246250153 -0.3981908857822418 4.475979804992676 161 143 141
0.12219156324863434 0.25572270154953003 4.517218589782715 78 74 91
-0.330316424369812 -0.0610983744263649 3.848996162414551 155 169 154
-0.4789482355117798 0.6374790668487549 4.093963623046875 86 88 74
-0.7167552709579468 0.4921227693557739 3.705597162246704 114 131 200
-0.33286556601524353 -0.0038001900538802147 3.86464786529541 151 162 156
-0.05938965454697609 -0.052815940231084824 4.20098876953125 73 65 63
-0.29711079597473145 -0.15080592036247253 3.9023115634918213 176 168 145
-0.19954852759838104 -0.03274478763341904 4.134541034698486 138 125 119
-0.32484710216522217 -0.10116209834814072 3.778319835662842 155 161 147
-0.14423958957195282 -0.2691713273525238 4.016897201538086 206 188 176
-0.30951908230781555 -0.04145753011107445 3.964845895767212 143 135 132
0.15407143533229828 -0.2764666676521301 4.183820724487305 71 61 59
-0.1894349604845047 0.017690589651465416 4.144600868225098 144 155 149
-0.7897689342498779 0.6461092233657837 4.3312788009643555 52 51 46
0.14277246594429016 -0.2290656566619873 4.337085723876953 119 104 101
-0.4143577218055725 0.5785767436027527 4.386811256408691 183 151 110
0.14485031366348267 -0.25112658739089966 4.268772602081299 77 62 69
0.14964202046394348 -0.3008374869823456 4.334938049316406 75 64 58
-0.15654709935188293 -0.03174428641796112 4.165108680725098 76 74 77
0.14264555275440216 0.10370318591594696 4.51244592666626 140 139 137
-0.7993896007537842 0.6524664163589478 4.331513404846191 131 136 116
-0.6873912215232849 0.6434574723243713 4.444826602935791 54 54 54
0.14374588429927826 -0.1607016623020172 4.3610453605651855 67 57 58
-0.12308976799249649 -0.3424990177154541 3.827960729598999 228 239 223
-0.30825555324554443 0.06055551767349243 3.6776282787323 99 114 109
-0.12535670399665833 -0.12943284213542938 4.150484561920166 132 105 96
0.15207120776176453 -0.38718241453170776 4.356435298919678 119 104 101
0.2364330291748047 -0.5069871544837952 4.471607208251953 68 56 76
-0.15713457763195038 -0.3271229863166809 3.768950939178467 160 167 151
-0.18510621786117554 -0.04088127985596657 4.146063804626465 133 127 115
-0.29560327529907227 -0.18353956937789917 3.796797275543213 107 100 90
-0.15807034075260162 -0.32382020354270935 3.7545523643493652 231 246 227
0.11016683280467987 0.27845504879951477 4.420322418212891 66 62 61
-0.2723097503185272 -0.001167186419479549 4.055853366851807 44 44 44
-0.29711079597473145 -0.15080592036247253 3.9023115634918213 176 168 145
-0.8294861316680908 0.6701880693435669 4.291527271270752 215 215 189
-0.19512130320072174 0.021359827369451523 4.1287007331848145 48 45 62
-0.3065384030342102 0.09239191561937332 3.947425365447998 81 86 80
-0.7495100498199463 0.626433789730072 4.357300758361816 156 166 158
0.14127488434314728 -0.349348783493042 4.084794044494629 61 55 57
0.15529470145702362 -0.4073513150215149 4.357179641723633 133 114 116
-0.13984587788581848 -0.034276511520147324 4.168302536010742 80 81 76
0.15143603086471558 -0.3477877378463745 4.214207649230957 126 106 97
-0.3145003020763397 -0.1435990035533905 3.7928526401519775 74 74 74
-0.06837256252765656 -0.24170705676078796 4.092615604400635 195 184 164
-0.5289092659950256 0.6444985866546631 4.343923091888428 227 244 238
-0.7764811515808105 0.6411649584770203 4.206951141357422 172 178 166
-0.1580534279346466 -0.12387905269861221 4.145046710968018 169 148 127
0.14038987457752228 -0.12398320436477661 4.371748447418213 59 59 59
-0.3081672787666321 -0.15673018991947174 3.7795581817626953 103 111 87
0.16465100646018982 -0.3211726248264313 4.4875078201293945 173 158 161
-0.21173834800720215 -0.29750117659568787 3.8317012786865234 153 135 125
-0.1019466295838356 -0.06200825423002243 4.188670635223389 157 161 144
-0.31473901867866516 0.6282939314842224 4.450748920440674 158 158 160
-0.11867626756429672 -0.26485827565193176 4.043135166168213 201 175 150
0.1030161902308464 0.3650076687335968 4.371389865875244 51 50 48
0.15245451033115387 -0.3119434118270874 4.315163612365723 75 58 68
-0.15367555618286133 -0.32785940170288086 3.7786900997161865 154 162 149
-0.3126627802848816 -0.14022552967071533 3.768587589263916 171 178 162
0.17972177267074585 -0.475941926240921 4.467682838439941 133 117 117
-0.04753236472606659 0.4779597818851471 3.7106995582580566 96 93 78
-0.15199856460094452 -0.3228951692581177 3.7506093978881836 231 245 228
-0.21612881124019623 -0.0390457846224308 4.118826866149902 88 68 67
-0.30337369441986084 0.4454825818538666 4.212921619415283 89 96 78
-0.39761388301849365 0.46114593744277954 4.410214424133301 175 151 115
-0.2901274859905243 0.1408604085445404 3.7283265590667725 62 60 65
-0.2935081720352173 -0.08136104047298431 3.9967923164367676 184 181 176
0.15108224749565125 -0.312864750623703 4.3336944580078125 138 121 114
-0.7442637085914612 0.6563663482666016 4.400341987609863 71 75 76
-0.20113380253314972 0.19235122203826904 4.065850257873535 117 130 123
0.21009117364883423 0.8446256518363953 4.620480537414551 156 222 255
-0.15593649446964264 0.7108795046806335 4.480905055999756 46 42 39
-0.12090452015399933 -0.3222871422767639 3.9334633350372314 172 177 155
-0.3365774154663086 -0.03230847418308258 3.8804609775543213 77 87 78
0.056163836270570755 0.7320194244384766 4.49739408493042 103 102 108
-0.2876388132572174 0.416287899017334 4.2832560539245605 185 188 177
-0.16736873984336853 -0.31682124733924866 3.7839226722717285 217 231 218
-0.2164163589477539 -0.28410807251930237 3.8187408447265625 97 85 87
-0.31741663813591003 -0.05283833667635918 3.6838252544403076 177 189 175
-0.12018363922834396 -0.2650499641895294 4.043848991394043 201 175 150
0.14980770647525787 -0.30516842007637024 4.375185012817383 59 48 52
-0.27515336871147156 -0.21338175237178802 3.699265480041504 205 216 200
-0.047286588698625565 0.44157934188842773 3.7379491329193115 93 98 76
-0.3181067705154419 0.06130340322852135 3.7086668014526367 151 167 167
-0.150373637676239 -0.25842398405075073 4.030342102050781 150 135 128
-0.6912766695022583 0.6230718493461609 4.41438627243042 197 196 175
-0.3131844699382782 0.47684431076049805 4.157257080078125 83 96 86
-0.7179475426673889 0.6474114060401917 4.427421569824219 30 30 30
0.15285727381706238 -0.3926054537296295 4.292798042297363 69 53 56
-0.5909814238548279 0.657837450504303 4.052129745483398 83 96 104
-0.32201558351516724 0.49158912897109985 4.111946105957031 92 129 98
0.13115130364894867 -0.03423267975449562 4.330216884613037 110 94 94
-0.3126780390739441 -0.058759793639183044 3.691580295562744 69 69 71
-0.22993026673793793 -0.04720733314752579 4.104828357696533 159 128 108
-0.8407455682754517 0.7001227140426636 4.387539863586426 131 130 136
0.14162519574165344 -0.23716318607330322 4.391529083251953 49 44 48
-0.2865101397037506 0.16747769713401794 3.9255495071411133 68 75 67
-0.23198841512203217 -0.00031158217461779714 4.091457366943359 94 76 76
-0.30518481135368347 -0.08998800069093704 3.7190957069396973 85 75 63
-0.7068965435028076 0.706281840801239 3.923626184463501 214 231 221
-0.30768415331840515 0.46392378211021423 4.138697624206543 36 71 47
-0.7999064326286316 0.6420833468437195 4.256889820098877 171 182 168
-0.11593952775001526 -0.34989017248153687 3.7785534858703613 226 236 212
0.17008116841316223 -0.438224196434021 4.461157321929932 87 68 70
-0.32537055015563965 0.06682998687028885 3.7705459594726562 155 168 159
-0.22049105167388916 0.0877026692032814 4.096275806427002 148 166 170
0.15431243181228638 -0.375146746635437 4.2444915771484375 119 101 101
-0.7983091473579407 0.6384177207946777 4.30417537689209 190 194 177
-0.08363042026758194 -0.34401005506515503 3.9224064350128174 232 241 224
-0.18612147867679596 -0.11572831124067307 4.109790802001953 142 107 103
0.14438147842884064 -0.24860800802707672 4.2016987800598145 163 154 157
-0.409829705953598 0.6178222298622131 4.15364408493042 154 137 107
0.03810228407382965 -0.44535255432128906 3.8804123401641846 30 29 35
-0.048013754189014435 0.4743383526802063 3.691704511642456 7 16 15
-0.3162280023097992 -0.06403173506259918 3.6932480335235596 68 74 70
-0.6541866660118103 0.6177524328231812 4.437110424041748 115 116 111
-0.7523877024650574 0.49298253655433655 3.6780545711517334 134 158 186
-0.7608585953712463 0.6509352326393127 4.377432346343994 42 45 52
-0.7291756272315979 0.6302130222320557 4.395078659057617 198 206 191
-0.05690636485815048 -0.008280675858259201 4.208000183105469 146 159 149
0.04634664207696915 -0.4139096736907959 3.896084785461426 28 37 36
-0.7462506890296936 0.4944893419742584 3.673703193664551 134 158 186
-0.04173842817544937 0.4781027138233185 3.735913038253784 11 15 14
-0.3246549963951111 0.07600648701190948 3.839388132095337 149 160 154
-0.1862262487411499 -0.2874269485473633 3.918377637863159 222 191 162
-0.8391883969306946 0.7013942003250122 4.322873592376709 66 57 60
-0.142123743891716 -0.12442135810852051 4.146106243133545 186 163 145
-0.7698321342468262 0.6585594415664673 4.357132911682129 28 28 26
-0.12125207483768463 -0.33649277687072754 3.7301244735717773 221 232 216
0.1514805108308792 -0.3845274746417999 4.209998607635498 123 103 102
0.152383953332901 -0.301924467086792 4.2032389640808105 68 59 64
-0.5043030381202698 0.7107893824577332 3.8453428745269775 169 178 185
-0.3287275731563568 -0.037197697907686234 3.888002872467041 158 178 169
-0.20404313504695892 -0.026990577578544617 4.129015922546387 68 55 62
-0.08017904311418533 -0.3514072299003601 3.888068437576294 178 178 166
-0.11457584798336029 0.22067351639270782 4.118046760559082 104 109 102
-0.3967730402946472 0.5762626528739929 4.297820091247559 42 44 39
0.18908892571926117 -0.4793297350406647 3.501662015914917 135 116 110
-0.31123700737953186 0.11477334797382355 3.735921621322632 130 151 156
0.15481889247894287 -0.4046391546726227 4.305124282836914 130 108 111
-0.2282915711402893 -0.27622199058532715 3.811953544616699 212 193 179
-0.31862908601760864 -0.12249954789876938 3.829601287841797 126 106 97
0.15210658311843872 -0.3743322491645813 4.335188388824463 117 100 106
-0.31255650520324707 0.0649615079164505 3.9537930488586426 54 59 55
0.1644396334886551 0.0776934027671814 4.522909641265869 150 134 144
-0.05483109503984451 -0.3549312353134155 3.9307188987731934 150 149 147
-0.22964777052402496 -0.27605247497558594 3.8126285076141357 212 193 179
0.15951837599277496 -0.17529690265655518 4.498531818389893 178 164 151
0.15401394665241241 -0.40745940804481506 4.28407096862793 77 68 69
-0.2545178532600403 -0.2482517510652542 3.8077590465545654 221 218 203
0.15173594653606415 -0.35919517278671265 4.370270252227783 112 102 100
0.1547992080450058 -0.23126175999641418 4.485660076141357 139 121 119
0.12864628434181213 -0.03438736870884895 4.409145355224609 72 57 62
-0.25008663535118103 -0.2536576986312866 3.8395047187805176 212 211 193
0.15588881075382233 -0.3578844368457794 4.227203845977783 128 107 106
-0.34638896584510803 0.45385217666625977 4.4304890632629395 197 188 145
-0.2661150395870209 0.4100174307823181 4.288609027862549 71 51 50
-0.764194667339325 0.6356760263442993 4.347778797149658 99 118 122
-0.19683629274368286 0.2923814356327057 3.9281504154205322 98 112 99
-0.8168026804924011 0.6685884594917297 4.248663902282715 30 31 26
-0.7960017919540405 0.6565977931022644 4.224484443664551 40 38 41
0.043660979717969894 -0.26462674140930176 4.0910115242004395 115 121 109
0.10431865602731705 0.3553425669670105 4.413854122161865 62 58 55
0.057769857347011566 0.4819752871990204 4.3879804611206055 68 55 49
0.14965632557868958 -0.38290661573410034 4.396103382110596 113 103 102
-0.7018872499465942 0.66644287109375 4.438187599182129 28 29 33
-0.17567433416843414 -0.10111407190561295 4.1385722160339355 105 81 79
-0.2863638997077942 0.5837618708610535 3.8377435207366943 72 85 65
-0.3047914206981659 -0.1439179629087448 3.7761309146881104 75 86 82
-0.2982754707336426 -0.10637708753347397 3.974156618118286 195 196 190
-0.7222920656204224 0.6441270112991333 4.136483669281006 162 166 133
-0.11370660364627838 -0.3390911817550659 3.8912322521209717 154 163 158
-0.11233576387166977 -0.32668009400367737 3.941758155822754 230 239 220
-0.2715339660644531 0.7153904438018799 4.486140251159668 104 100 99
-0.2892617881298065 -0.13753195106983185 3.8017592430114746 70 68 73
0.10970987379550934 0.4424170255661011 4.530484199523926 71 67 82
-0.794642448425293 0.6422326564788818 4.248584270477295 190 198 187
-0.11116756498813629 0.18852704763412476 4.125958442687988 72 81 80
0.15555647015571594 0.041369639337062836 4.51800537109375 89 77 87
0.1592719405889511 -0.28171324729919434 4.490567684173584 178 166 166
0.026394115760922432 -0.46419599652290344 3.8599205017089844 28 31 46
0.0799044743180275 0.6674085855484009 4.5516743659973145 139 124 147
0.13714726269245148 -0.02130795456469059 4.473390102386475 118 102 102
-0.29266494512557983 -0.0876283347606659 3.635908365249634 171 181 172
0.09610937535762787 0.6987792253494263 4.5535407066345215 189 179 154
-0.09447287023067474 -0.3492070734500885 3.880741596221924 228 238 204
-0.26925334334373474 0.5692464113235474 3.886843681335449 43 70 63
-0.7764811515808105 0.6411649584770203 4.206951141357422 172 178 166
0.327971875667572 0.5799523591995239 3.990680694580078 34 30 27
-0.790338933467865 0.6610272526741028 4.2225189208984375 40 38 41
-0.016947781667113304 0.5073845386505127 4.438760757446289 193 163 109
-0.2879024147987366 -0.10232860594987869 3.9859395027160645 135 138 121
-0.7418519258499146 0.657401442527771 4.414478302001953 24 28 39
-0.6720693111419678 0.6372671723365784 4.446818828582764 151 153 140
0.0778799057006836 0.4763825237751007 3.6899688243865967 52 52 50
-0.151585191488266 0.041999105364084244 4.164881229400635 103 115 113
-0.778885543346405 0.6339544653892517 4.325197696685791 125 133 135
-0.30518031120300293 -0.048490822315216064 3.6939315795898438 167 174 158
-0.33205196261405945 0.027901392430067062 3.88362193107605 99 75 73
-0.12102444469928741 -0.022691382095217705 4.180185794830322 158 174 171
-0.7871270775794983 0.6275993585586548 4.282517910003662 148 159 143
-0.8466814160346985 0.8206071853637695 4.545337677001953 146 163 171
-0.31040289998054504 0.4476945698261261 4.215576171875 89 96 78
-0.3139793574810028 0.4350310266017914 4.228546142578125 139 143 118
-0.6584506630897522 0.7078640460968018 3.9511642456054688 24 18 18
0.11306770890951157 0.3982203006744385 4.527318477630615 65 59 69
-0.7841066122055054 0.6836649179458618 4.196623802185059 26 26 26
0.141119584441185 -0.15743330121040344 4.329428195953369 122 109 101
0.17067410051822662 -0.41264933347702026 3.3983941078186035 65 48 41
-0.5203055143356323 0.5928730964660645 3.989264488220215 225 242 250
-0.3230728507041931 0.48864102363586426 4.162785053253174 43 63 51
-0.034542303532361984 -0.25991928577423096 4.085633277893066 187 174 155
0.16955886781215668 0.06256186962127686 4.528994560241699 90 88 93
-0.4959522485733032 0.6285836100578308 4.090074062347412 126 108 84
-0.011214585043489933 -0.28665366768836975 4.066974639892578 161 161 161
-0.154195174574852 0.6188151240348816 4.448200225830078 163 184 203
0.11594126373529434 0.40811359882354736 4.530132293701172 146 133 125
-0.17821316421031952 -0.31186971068382263 3.7520391941070557 238 251 242
-0.16240949928760529 -0.3165093660354614 3.7811741828918457 217 231 218
-0.31212759017944336 -0.11571422964334488 3.7264935970306396 164 166 155
0.07470697909593582 -0.21640978753566742 4.130924701690674 85 76 77
-0.11189856380224228 -0.32668793201446533 3.94155216217041 230 239 220
-0.3031002879142761 -0.129588782787323 3.711169958114624 152 141 123
-0.024586914107203484 -0.0011014384217560291 4.212530612945557 74 83 82
0.1507650762796402 -0.3721740245819092 4.2590484619140625 121 103 99
-0.09278444200754166 -0.3446154296398163 3.9004673957824707 221 233 213
-0.6549726128578186 0.6668738722801208 4.463648319244385 82 83 87
-0.772544801235199 0.6341181993484497 4.241231441497803 163 170 152
-0.6964597105979919 0.6473539471626282 4.439026832580566 53 55 50
-0.32976609468460083 0.0654599517583847 3.746567964553833 146 166 167
0.14645268023014069 -0.15074843168258667 4.496017932891846 68 63 69
0.1033053994178772 0.41691747307777405 4.534461498260498 55 62 80
-0.4973847568035126 0.6456461548805237 4.413151264190674 116 117 109
-0.692625880241394 0.6394004225730896 4.43269157409668 63 62 67
0.15825042128562927 -0.3487847149372101 4.256556510925293 67 58 61
-0.14131838083267212 -0.059228479862213135 4.166270732879639 112 94 84
-0.31753140687942505 -0.03778793662786484 3.9524590969085693 139 131 120
0.14742127060890198 -0.27531248331069946 4.319690227508545 54 44 42
0.04005657881498337 0.7324259281158447 4.57205867767334 108 101 134
0.14666429162025452 0.15045611560344696 4.528212547302246 115 95 97
-0.7745346426963806 0.6332762837409973 4.24224328994751 163 170 152
-0.41926807165145874 0.6315229535102844 4.150040149688721 57 48 41
0.16829007863998413 -0.49438849091529846 4.450787544250488 117 96 91
-0.291271835565567 0.0026838898193091154 4.017090320587158 141 130 110
-0.2571800947189331 -0.2077420949935913 3.9509336948394775 199 186 167
0.16013163328170776 -0.49208471179008484 4.218072891235352 101 81 72
0.11691790074110031 0.20464307069778442 4.451736927032471 121 107 106
-0.2897053062915802 -0.006883934605866671 4.029483795166016 75 61 60
-0.2421092987060547 -0.10567177832126617 4.067873001098633 165 137 115
0.110134556889534 0.27791517972946167 4.458949089050293 127 111 114
-0.23986080288887024 -0.17765015363693237 4.0226731300354 184 157 130
-0.24159106612205505 -0.20644976198673248 3.9813718795776367 117 97 88
0.113510362803936 0.3006293475627899 4.501349925994873 146 130 131
-0.21788427233695984 -0.10312987864017487 4.096922874450684 164 143 124
0.12123027443885803 -0.2552903890609741 4.176795959472656 120 119 125
-0.17653028666973114 -0.17498904466629028 4.0922369956970215 188 165 147
-0.25324660539627075 -0.10849715769290924 4.053379058837891 167 153 150
0.15486979484558105 -0.3225001096725464 4.440638065338135 117 109 106
-0.18055954575538635 -0.2600531280040741 3.997502088546753 204 181 167
0.16699261963367462 -0.48663902282714844 4.106297969818115 116 87 89
-0.22690612077713013 0.022859320044517517 4.0947465896606445 132 113 107
0.1250440627336502 0.09921282529830933 4.471837520599365 115 95 96
-0.22554177045822144 0.02172781340777874 4.109798908233643 125 129 106
-0.28070640563964844 -0.1424136459827423 3.984483003616333 110 95 74
-0.5745119452476501 0.7751711010932922 4.557748317718506 145 167 181
-0.26251229643821716 -0.0901554748415947 4.051599979400635 153 134 120
0.13722848892211914 -0.07873720675706863 4.4365339279174805 121 101 102
-0.3104962408542633 -0.051149141043424606 3.9632372856140137 142 136 136
-0.26816126704216003 0.002528894692659378 4.055881500244141 46 50 51
0.12871423363685608 -0.32585999369621277 4.0906572341918945 111 120 135
-0.5743833184242249 0.7758843898773193 4.557618618011475 145 167 181
0.09607034921646118 0.46364888548851013 4.509053707122803 130 105 109
-0.3185010850429535 -0.05976729094982147 3.935238838195801 171 172 156
-0.18659621477127075 -0.16019511222839355 4.103140830993652 183 158 138
-0.18510621786117554 -0.04088127985596657 4.146063804626465 140 124 111
-0.26555514335632324 -0.19571788609027863 3.945044994354248 206 187 172
-0.23522871732711792 0.04114779829978943 4.095639228820801 157 163 161
0.11722205579280853 0.21737328171730042 4.455524444580078 124 108 109
-0.11926016211509705 0.039269909262657166 4.188241004943848 159 162 145
0.13962222635746002 -0.09774381667375565 4.462141036987305 134 113 108
-0.25351452827453613 -0.20185837149620056 3.9777536392211914 201 190 170
-0.22457939386367798 -0.26204776763916016 3.899538278579712 154 130 120
-0.11491144448518753 0.02286294288933277 4.190621852874756 162 172 173
0.13638406991958618 -0.05387740582227707 4.448613166809082 60 45 42
-0.25566351413726807 -0.23421189188957214 3.903205156326294 128 109 94
-0.23214176297187805 -0.14513273537158966 4.058903694152832 117 92 88
-0.2714587152004242 0.016722116619348526 4.05393123626709 58 57 53
0.14960458874702454 -0.2899223268032074 4.420442581176758 119 99 100
-0.24219854176044464 -0.20655803382396698 3.9817700386047363 117 97 88
-0.2718872129917145 -0.034967102110385895 4.051332950592041 134 120 107
-0.28070640563964844 -0.1424136459827423 3.984483003616333 110 95 74
-0.2866137623786926 -0.1205657348036766 3.9815847873687744 79 68 62
0.11882158368825912 0.14238516986370087 4.452173709869385 118 102 103
-0.252777099609375 0.045891016721725464 4.072084426879883 130 146 136
0.10597170144319534 -0.07391373813152313 4.247567653656006 94 94 86
-0.2935076653957367 -0.08747564256191254 3.982349157333374 83 72 70
0.17412878572940826 -0.5213624835014343 4.447185516357422 105 79 66
-0.2935716509819031 -0.08763309568166733 3.9823455810546875 83 72 70
-0.08806435763835907 0.12109836935997009 4.179662227630615 124 143 149
0.12166335433721542 -0.25366300344467163 4.176651477813721 120 119 125
-0.19611375033855438 0.15781967341899872 4.0969743728637695 148 153 149
-0.14121957123279572 0.0230681374669075 4.175041198730469 145 159 159
-0.20072795450687408 0.02026902511715889 4.131362438201904 40 47 57
0.1581977903842926 -0.1756775826215744 4.499348163604736 175 158 148
0.0455586239695549 -0.39818090200424194 3.8876678943634033 89 93 94
-0.2722163796424866 -0.2032567411661148 3.9069716930389404 180 159 142
0.10935530066490173 0.33737844228744507 4.4949951171875 139 121 121
-0.387123167514801 0.4517987072467804 4.412746906280518 230 223 194
-0.1429627537727356 -0.049500271677970886 4.170979976654053 151 136 117
-0.27238258719444275 -0.15239204466342926 3.9827826023101807 133 103 95
-0.28354766964912415 -0.003439350053668022 4.041036128997803 53 51 52
0.11998020857572556 0.17868562042713165 4.467366695404053 65 47 47
-0.3277781307697296 -0.05596086382865906 3.9014387130737305 166 172 160
-0.31477320194244385 -0.04037219658493996 3.959238290786743 48 50 49
-0.1291843056678772 0.03915854170918465 4.176015853881836 146 156 145
0.11306770890951157 0.3982203006744385 4.527318477630615 66 55 63
-0.35153985023498535 0.6133821606636047 4.205679416656494 117 99 79
-0.2255304902791977 0.08418814837932587 4.099870681762695 148 164 164
0.17193080484867096 -0.4991353154182434 4.10317325592041 124 110 109
0.11044325679540634 0.2659798264503479 4.473383903503418 58 46 48
0.1710478961467743 -0.4811939001083374 3.9330055713653564 111 86 81
0.06042822450399399 -0.37845075130462646 3.933642625808716 30 29 24
-0.16132621467113495 -0.17447017133235931 4.106423377990723 198 174 164
-0.2848546504974365 -0.09768684208393097 4.007169723510742 177 156 137
-0.21485990285873413 -0.08216724544763565 4.11070442199707 162 138 128
-0.18820543587207794 -0.07702956348657608 4.1306376457214355 151 128 114
-0.7717151045799255 0.6947519779205322 4.366927623748779 73 74 78
0.09159950911998749 0.5385327935218811 4.515194416046143 130 109 116
-0.1961667388677597 -0.0012926895869895816 4.1305646896362305 48 47 52
0.1393834948539734 -0.09522760659456253 4.433929443359375 119 97 99
-0.2442455142736435 0.005188754294067621 4.09457540512085 135 123 101
-0.3354356586933136 -0.039413560181856155 3.827672243118286 93 96 89
0.1378360092639923 -0.11040917783975601 4.446693420410156 67 47 40
-0.11249221116304398 -0.08702263981103897 4.174747943878174 155 131 107
-0.22939468920230865 0.034184038639068604 4.0924458503723145 61 65 66
0.1728886365890503 -0.42843011021614075 4.463736534118652 144 124 126
0.16968141496181488 -0.5127078294754028 4.207718849182129 210 182 179
-0.2827777564525604 -0.1908216029405594 3.8995554447174072 108 94 83
-0.3322547674179077 -0.03848015144467354 3.825180768966675 93 96 89
-0.13571280241012573 0.057976365089416504 4.1732072830200195 146 166 167
-0.15353885293006897 0.022525392472743988 4.164339065551758 156 171 168
-0.2935081720352173 -0.08136104047298431 3.9967923164367676 184 183 178
0.09148261696100235 0.5180220603942871 4.50812292098999 132 105 112
-0.0719689279794693 0.035618074238300323 4.204397201538086 62 67 73
0.16954448819160461 -0.5193859338760376 4.295301914215088 197 178 164
-0.14035378396511078 -0.11424233019351959 4.152499198913574 113 88 81
-0.1493854820728302 -0.31065329909324646 3.9276177883148193 211 194 174
0.11303331702947617 0.26702645421028137 4.4719343185424805 58 46 48
-0.11460524052381516 -0.040675196796655655 4.183504581451416 93 99 95
-0.15787957608699799 0.08754013478755951 4.151295185089111 145 169 169
0.1378360092639923 -0.11040917783975601 4.446693420410156 67 47 40
-0.2381933182477951 -0.17271926999092102 4.0315423011779785 182 155 134
-0.24523478746414185 0.00957473274320364 4.081800937652588 73 71 72
0.15951837599277496 -0.17529690265655518 4.498531818389893 175 158 148
0.17008116841316223 -0.438224196434021 4.461157321929932 92 69 63
-0.23008884489536285 -0.2207455337047577 3.979797840118408 141 112 106
-0.2735048830509186 0.17640846967697144 3.960545778274536 70 87 81
-0.2698821723461151 0.08087728172540665 4.0389556884765625 87 80 70
0.11982724815607071 0.19341008365154266 4.4884443283081055 141 120 127
0.16971448063850403 -0.5041530132293701 4.211175441741943 116 95 94
0.12219156324863434 0.25572270154953003 4.517218589782715 70 68 82
0.10394372791051865 0.36469799280166626 4.480160713195801 47 38 39
0.10431865602731705 0.3553425669670105 4.413854122161865 69 54 57
-0.19620664417743683 -0.2612280249595642 3.9704182147979736 106 88 88
-0.1486208438873291 -0.026503073051571846 4.170195579528809 178 173 144
-0.05938965454697609 -0.052815940231084824 4.20098876953125 77 72 68
-0.26864179968833923 0.025306863710284233 4.056009292602539 132 134 120
-0.12516671419143677 0.0625222772359848 4.179281711578369 80 81 83
-0.06526828557252884 -0.16169865429401398 4.160045146942139 168 152 129
-0.23535265028476715 0.06270192563533783 4.097590446472168 156 166 165
0.10788188129663467 0.3908856511116028 4.503549098968506 129 104 108
-0.2542904019355774 -0.09060779213905334 4.060904026031494 96 71 66
-0.2154635339975357 -0.1641930490732193 4.066903591156006 191 165 142
-0.1463862508535385 -0.016799304634332657 4.1715850830078125 92 107 102
0.16465100646018982 -0.3211726248264313 4.4875078201293945 179 161 161
-0.272941917181015 -0.152568057179451 3.983030319213867 133 103 95
-0.3116128742694855 -0.13036289811134338 3.8893353939056396 66 71 67
-0.3007450997829437 -0.08528624475002289 3.974030017852783 164 146 132
0.04634664207696915 -0.4139096736907959 3.896084785461426 27 33 33
-0.7099850177764893 0.8376513123512268 4.565685749053955 73 68 122
0.15696117281913757 -0.4128004312515259 4.188309192657471 137 109 108
-0.21829597651958466 -0.18574422597885132 4.046957015991211 185 156 140
-0.6851027011871338 0.8580531477928162 4.565932750701904 52 91 150
-0.25088629126548767 -0.1930345594882965 3.9835972785949707 96 82 82
-0.306865930557251 -0.13367420434951782 3.9046642780303955 175 179 162
0.14964202046394348 -0.3008374869823456 4.334938049316406 77 66 64
0.15654820203781128 -0.34363555908203125 4.445667743682861 129 120 115
0.10970987379550934 0.4424170255661011 4.530484199523926 65 59 71
-0.33156079053878784 -0.036292899399995804 3.8378546237945557 106 112 100
-0.2511506676673889 -0.09101246297359467 4.059009075164795 96 71 66
-0.05707688257098198 -0.05971168726682663 4.201569080352783 135 123 97
-0.22812223434448242 -0.16858388483524323 4.048665523529053 182 157 135
-0.3310782015323639 -0.019871294498443604 3.8850040435791016 170 179 162
-0.29367342591285706 -0.182944193482399 3.8874685764312744 192 175 157
-0.31172093749046326 -0.11859896034002304 3.901491165161133 205 209 184
-0.26851534843444824 0.0987381562590599 4.033538818359375 80 81 67
0.10209891945123672 0.5068349242210388 4.526243209838867 138 114 136
-0.2966160178184509 -0.12822595238685608 3.9485063552856445 175 158 148
0.09853053092956543 0.4570019841194153 4.5227766036987305 69 57 67
-0.2675340473651886 0.009235063567757607 4.061150550842285 134 119 100
-0.31143078207969666 -0.12765847146511078 3.8768692016601562 58 60 55
0.1759314239025116 0.7335090637207031 4.575645446777344 102 105 86
0.1045304536819458 0.37816232442855835 4.492895126342773 134 102 103
-0.2740693688392639 -0.00022920990886632353 4.045557975769043 51 48 57
0.1483820229768753 -0.022205326706171036 4.502020359039307 139 118 125
0.29500678181648254 -0.3067871332168579 4.494892597198486 134 135 139
0.1657571643590927 -0.5064489245414734 4.245913028717041 111 88 96
0.15173594653606415 -0.35919517278671265 4.370270252227783 112 98 95
-0.1690569669008255 -0.3011312782764435 3.906123399734497 220 198 175
-0.21722610294818878 0.1140570417046547 4.098060607910156 75 89 90
0.15529470145702362 -0.4073513150215149 4.357179641723633 134 114 113
0.13162867724895477 -0.015154365450143814 4.423006057739258 114 100 99
-0.20598720014095306 -0.19323398172855377 4.051951885223389 140 114 101
-0.30746257305145264 -0.11510833352804184 3.9267070293426514 178 187 168
-0.15732775628566742 -0.1435353308916092 4.128535270690918 127 101 88
-0.29298073053359985 -0.13762754201889038 3.9594640731811523 157 126 106
0.15108224749565125 -0.312864750623703 4.3336944580078125 126 117 112
0.14453162252902985 -0.1667221486568451 4.439821720123291 53 39 38
0.07720787078142166 -0.5013216733932495 3.8446550369262695 183 167 152
-0.3371439576148987 0.01395172718912363 3.858320951461792 157 170 160
0.12029498815536499 0.3006223738193512 4.528189659118652 168 155 136
0.04566790163516998 -0.3983091413974762 3.8876547813415527 89 93 94
-0.055839620530605316 0.05057420954108238 4.2046589851379395 150 160 161
-0.23445133864879608 -0.20993296802043915 3.9877490997314453 194 175 158
-0.01694609224796295 -0.2938302159309387 4.045052528381348 204 213 184
-0.26864948868751526 -0.013020774349570274 4.05668830871582 46 31 28
-0.11489785462617874 0.17683663964271545 4.141942977905273 123 127 128
0.14222311973571777 -0.05487946420907974 4.479637622833252 72 57 52
0.15787053108215332 -0.284584641456604 4.476183891296387 61 59 60
0.10547011345624924 0.3712742030620575 4.351021766662598 113 93 94
0.11594126373529434 0.40811359882354736 4.530132293701172 153 134 119
-0.7288653254508972 0.6250339150428772 4.381928443908691 201 209 185
-0.6756721138954163 0.7620251774787903 4.553552627563477 135 162 173
-0.31100231409072876 0.05152861773967743 3.9605140686035156 68 59 52
0.16265419125556946 -0.45453253388404846 3.945864200592041 93 71 73
0.15285727381706238 -0.3926054537296295 4.292798042297363 64 49 54
0.09610937535762787 0.6987792253494263 4.5535407066345215 200 184 169
-0.33028644323349 -0.051259104162454605 3.8520636558532715 99 104 100
-0.1226259171962738 0.031013259664177895 4.18204402923584 60 72 72
-0.2442455142736435 0.005188754294067621 4.09457540512085 135 123 101
0.1563401073217392 -0.4072411060333252 4.356529235839844 134 114 113
-0.3220765292644501 -0.02595396712422371 3.945162057876587 134 130 103
0.1544957309961319 -0.32667845487594604 4.3157758712768555 131 113 111
-0.03649601712822914 0.49668487906455994 4.447537899017334 189 158 103
-0.15724262595176697 -0.15602053701877594 4.115715980529785 180 159 138
-0.23997850716114044 0.06499961763620377 4.09030818939209 105 115 107
-0.4959522485733032 0.6285836100578308 4.090074062347412 133 115 101
0.15547393262386322 -0.3812582790851593 4.425307750701904 51 43 41
-0.2071540355682373 0.16918720304965973 4.07687520980835 136 141 135
0.14673088490962982 -0.2131296843290329 4.43904972076416 59 38 43
-0.21996626257896423 -0.19400987029075623 4.038194179534912 198 173 151
-0.142123743891716 -0.12442135810852051 4.146106243133545 182 160 139
-0.4876241385936737 0.7103513479232788 4.499730110168457 109 105 106
-0.05196402966976166 0.029431959614157677 4.2103962898254395 156 168 164
-0.3363363742828369 -0.042901989072561264 3.766591787338257 168 169 163
0.034913528710603714 -0.45832687616348267 3.865339994430542 96 114 136
0.14596152305603027 -0.2687431871891022 4.4517502784729 122 113 114
-0.29157358407974243 -0.1378604620695114 3.9585189819335938 157 126 106
0.12930703163146973 -0.01666204258799553 4.434399127960205 112 96 96
-0.17526909708976746 0.006021186243742704 4.154231071472168 157 157 149
-0.3348732888698578 0.6035685539245605 4.208693504333496 52 49 40
0.14372862875461578 -0.1954144686460495 4.440807819366455 34 35 30
-0.17785902321338654 -0.2839721739292145 3.961480140686035 213 194 179
-0.43400636315345764 0.6330715417861938 4.157815933227539 53 44 39
-0.7993896007537842 0.6524664163589478 4.331513404846191 139 141 120
-0.22300884127616882 -0.22351613640785217 3.986241102218628 208 187 168
-0.1856333166360855 0.0067533147521317005 4.146296977996826 79 79 81
-0.23436693847179413 -0.2345905900001526 3.942416191101074 185 166 152
0.14889445900917053 -0.2979041635990143 4.315282344818115 129 110 103
-0.25745099782943726 -0.10078053176403046 4.046872615814209 88 73 70
-0.28044745326042175 -0.21679729223251343 3.7963621616363525 192 189 170
0.1286870688199997 0.21710719168186188 4.497304916381836 89 73 76
-0.2512613832950592 -0.24752530455589294 3.867001533508301 191 184 176
-0.1436707228422165 0.006499249953776598 4.167298793792725 163 174 170
-0.270426869392395 0.06313943862915039 4.043455123901367 81 79 66
-0.19954852759838104 -0.03274478763341904 4.134541034698486 142 123 117
0.11570654809474945 0.2787495255470276 4.506171703338623 129 111 111
-0.27127504348754883 -0.19417358934879303 3.929335832595825 204 184 160
-0.3365774154663086 -0.03230847418308258 3.8804609775543213 89 84 88
-0.32470324635505676 -0.08995261788368225 3.7956910133361816 169 182 165
0.15591119229793549 0.05699807032942772 4.520969867706299 137 132 139
-0.20404313504695892 -0.026990577578544617 4.129015922546387 58 53 49
0.1828669011592865 -0.26891791820526123 4.498283386230469 40 43 50
0.14622604846954346 -0.19732923805713654 4.459311008453369 66 60 62
-0.27887392044067383 0.03531903028488159 4.034987926483154 80 78 66
-0.1019466295838356 -0.06200825423002243 4.188670635223389 161 164 153
0.1635587066411972 -0.45168691873550415 4.397829532623291 120 96 92
-0.05449089780449867 -0.2849888205528259 4.05433988571167 196 172 146
0.15591119229793549 0.05699807032942772 4.520969867706299 137 132 139
-0.30538418889045715 -0.14208954572677612 3.8971140384674072 99 89 79
0.13092732429504395 0.30929863452911377 4.538183212280273 66 75 114
-0.14131838083267212 -0.059228479862213135 4.166270732879639 97 86 82
-0.31512248516082764 -0.14390571415424347 3.7934892177581787 75 69 69
0.1525808870792389 -0.22044336795806885 4.471654891967773 64 53 57
-0.3109118342399597 0.08965683728456497 3.9344840049743652 148 160 158
-0.32319357991218567 -0.11294836550951004 3.788670301437378 107 89 69
-0.006730679888278246 0.4633820354938507 3.918370008468628 25 27 22
