ply
format ascii 1.0
element vertex 687
property float x
property float y
property float z
property uchar red
property uchar green
property uchar blue
end_header
0.466697096824646 -0.4914318323135376 12.593229293823242 63 63 73
0.4273523688316345 0.20792211592197418 12.688549041748047 97 70 77
0.48549458384513855 -0.31678107380867004 12.649064064025879 156 131 134
-0.05556144192814827 0.14929871261119843 11.63136100769043 112 117 113
0.5173451900482178 -0.4985926151275635 12.633042335510254 35 37 50
-0.49730172753334045 -0.9578791260719299 11.404559135437012 123 123 121
-0.8421116471290588 -0.8714015483856201 11.073259353637695 216 194 170
-0.15542952716350555 -0.7767122387886047 10.447983741760254 151 153 140
0.38332533836364746 -0.3211804926395416 13.132542610168457 153 132 139
0.39336708188056946 0.71161949634552 13.26054573059082 56 80 108
0.2501392066478729 0.1322796791791916 13.135136604309082 123 102 99
-0.6547880172729492 -0.38971441984176636 11.814684867858887 141 95 97
0.3164213001728058 -0.8764512538909912 12.548842430114746 122 107 104
0.3428710401058197 0.7923645377159119 12.635875701904297 152 131 136
-0.9454765319824219 -0.535628080368042 11.600900650024414 198 163 143
0.26288068294525146 -0.8120900392532349 10.94764232635498 77 56 55
0.5348195433616638 0.2559683918952942 13.282448768615723 105 103 104
0.16730692982673645 -0.5860844254493713 11.792122840881348 54 56 53
-0.3850661516189575 0.013222724199295044 11.158954620361328 119 86 69
-0.003927642945200205 -0.005329609848558903 11.790718078613281 125 132 114
0.32772374153137207 -0.18224124610424042 12.438481330871582 124 104 95
0.7288817167282104 0.010768872685730457 12.607389450073242 144 125 129
-0.4888213276863098 -0.9681434631347656 11.281465530395508 237 245 232
0.26234760880470276 0.20878517627716064 13.033415794372559 113 97 98
-0.2365374118089676 -0.5465341806411743 11.63413143157959 183 151 128
0.44223010540008545 -0.22055436670780182 12.626657485961914 91 62 67
0.6616168022155762 0.45257750153541565 12.675375938415527 78 71 87
0.34455209970474243 0.4894796311855316 12.683647155761719 153 137 138
-0.5975771546363831 0.46267619729042053 11.745343208312988 140 141 145
0.386906236410141 0.022098775953054428 12.617202758789062 101 73 62
0.43175938725471497 -0.5273430347442627 12.614648818969727 186 181 178
0.47813019156455994 -0.7297108173370361 12.620895385742188 44 35 28
-0.6422203779220581 0.692277729511261 11.464879989624023 110 116 106
0.5371846556663513 0.26324811577796936 12.693863868713379 117 117 125
-0.34742897748947144 -0.9222561717033386 11.238961219787598 141 147 143
0.3592139482498169 0.9570946097373962 12.683032989501953 126 117 118
-0.8258897066116333 -0.263519287109375 11.892178535461426 101 71 71
0.6597782969474792 0.286428838968277 12.668046951293945 66 60 62
0.18810397386550903 -0.9415299892425537 10.432171821594238 79 83 84
0.4155287742614746 -0.6063928008079529 13.039196968078613 182 175 167
0.3891761600971222 -0.4215138554573059 12.585124015808105 76 51 47
-1.0771706104278564 -0.34065040946006775 11.560603141784668 176 139 121
0.344873309135437 0.8308570384979248 12.73412036895752 71 60 68
0.6371288299560547 -0.1332392692565918 12.984100341796875 135 120 123
-0.37970882654190063 -0.8691490888595581 11.665567398071289 237 244 228
-0.3463597893714905 0.6323730945587158 11.671449661254883 31 35 38
0.09633244574069977 -0.9535332322120667 11.412238121032715 87 75 75
-0.342646986246109 0.08678163588047028 11.937164306640625 150 159 156
-0.32230284810066223 -0.03304224833846092 11.853362083435059 165 167 153
0.2700512409210205 0.11801283061504364 13.009659767150879 129 106 100
-0.22074422240257263 -0.6686459183692932 11.534175872802734 93 77 80
0.40297839045524597 -0.097275510430336 12.65813159942627 132 117 122
0.6247010827064514 -0.25886890292167664 12.947312355041504 95 73 75
0.4264577627182007 0.06657765805721283 12.640922546386719 85 64 69
-0.7818674445152283 -0.05956803634762764 11.730828285217285 128 116 102
-0.7767035961151123 -0.021772239357233047 11.83094310760498 145 133 109
-0.279904842376709 -0.5909477472305298 11.594130516052246 191 160 139
0.30867674946784973 0.423513263463974 12.498079299926758 126 114 118
-0.24274829030036926 -0.7081457376480103 11.574987411499023 115 97 93
0.20567242801189423 -0.13293525576591492 11.934797286987305 84 70 70
0.3219398260116577 0.03264766186475754 13.135590553283691 151 138 145
-0.3685537278652191 -0.8428427577018738 11.536636352539062 224 228 213
0.4832689166069031 0.09648101776838303 12.68205451965332 122 116 126
0.266465425491333 -0.9895954728126526 9.979857444763184 70 60 58
-0.015306356362998486 -0.01927212066948414 11.866480827331543 125 132 114
-0.4885726571083069 -0.5905788540840149 11.517244338989258 202 179 161
-0.41083216667175293 -0.1569129377603531 11.892149925231934 76 65 69
-0.5593350529670715 -0.1022350862622261 11.881148338317871 152 155 146
-0.03323876112699509 0.33892664313316345 13.711943626403809 103 73 81
0.08781903982162476 -1.051133394241333 10.221096992492676 143 152 151
0.39278319478034973 0.5681589245796204 12.676401138305664 109 79 87
-0.8278973698616028 -0.7077348232269287 11.31729507446289 206 175 157
0.4577682912349701 0.6918424367904663 12.795573234558105 115 89 102
-0.9238314032554626 -0.08906368166208267 11.648689270019531 92 75 57
0.6092333793640137 -0.36031728982925415 13.010285377502441 124 115 116
-0.5314413905143738 0.013914009556174278 11.826665878295898 162 165 156
0.24471934139728546 0.35163867473602295 13.030179023742676 66 51 58
-0.9747560024261475 -0.13348014652729034 11.754948616027832 163 127 111
0.15870672464370728 -0.9005953669548035 10.586950302124023 153 156 163
-0.6519591212272644 -0.884206235408783 10.52504825592041 237 220 200
0.4217674136161804 -0.6585897207260132 12.601964950561523 157 146 140
0.31444302201271057 0.2730938494205475 13.316145896911621 114 97 103
0.6099191308021545 -0.4925522804260254 12.63613224029541 45 57 69
-0.5429224371910095 -0.39118579030036926 12.193669319152832 181 159 138
0.09469038993120193 -0.12985241413116455 11.370052337646484 42 43 38
-1.1039966344833374 0.017713533714413643 11.645072937011719 87 69 65
0.36752814054489136 0.6915271282196045 12.646953582763672 83 64 70
-0.10890040546655655 -0.16395194828510284 11.826349258422852 65 70 66
-1.0916777849197388 0.33801814913749695 11.427224159240723 107 118 114
0.3963329792022705 -0.7106886506080627 12.572027206420898 76 60 60
-0.41784316301345825 -0.8782633543014526 10.561345100402832 232 231 210
-0.5267413854598999 -0.14975890517234802 11.802196502685547 138 140 127
0.4499177038669586 -0.6169952154159546 12.620159149169922 47 30 38
-0.5860428810119629 0.20220281183719635 11.82417106628418 84 97 103
0.5303806066513062 0.24358154833316803 12.753472328186035 117 117 125
-1.0144752264022827 0.034132640808820724 11.661850929260254 147 120 111
0.432643324136734 0.15826107561588287 13.382468223571777 110 102 113
-1.0736944675445557 0.03004484996199608 11.633685111999512 74 71 62
-0.1337820142507553 -0.13766062259674072 11.801526069641113 163 162 141
0.39214661717414856 0.5236837267875671 12.693357467651367 157 151 153
-0.5172680020332336 -0.1789783239364624 11.87753677368164 166 168 154
0.3050929307937622 0.46916675567626953 13.315079689025879 102 77 96
0.4441114068031311 -0.37170204520225525 12.64655590057373 70 60 85
0.45657965540885925 -0.6799426078796387 12.609702110290527 55 46 37
0.28534388542175293 -0.3815426528453827 12.863938331604004 64 39 35
0.20254503190517426 -0.3133818805217743 11.976405143737793 133 119 119
-0.46938297152519226 0.4242319166660309 11.833207130432129 133 147 147
-0.5400241613388062 -0.2767299711704254 11.973381996154785 158 136 125
-0.6233623027801514 0.3780108690261841 11.826836585998535 40 48 50
0.270652711391449 -0.4635171890258789 12.946063041687012 65 45 38
-0.6692092418670654 -0.44214633107185364 11.643007278442383 192 164 143
-0.2505755126476288 -0.9586582183837891 11.365221977233887 162 158 157
-1.0168800354003906 -0.46112388372421265 11.592723846435547 145 103 89
0.33656567335128784 -0.7980096936225891 12.419395446777344 116 99 92
-0.27916985750198364 0.04398771747946739 11.90132999420166 155 162 154
-0.3847237229347229 0.28965529799461365 11.840627670288086 132 137 143
-0.20296327769756317 -1.0109196901321411 11.182390213012695 173 167 151
-0.3324721157550812 0.8505121469497681 11.033964157104492 84 81 74
0.4480862617492676 -0.3383500277996063 12.478362083435059 80 56 56
0.270652711391449 -0.4635171890258789 12.946063041687012 65 45 38
-0.3763557970523834 0.6639541387557983 11.53885555267334 37 40 45
-0.35358795523643494 0.21128496527671814 11.87742805480957 138 153 150
-0.22043214738368988 -0.9546580910682678 11.217790603637695 162 158 157
-0.45149433612823486 -0.7066020965576172 11.573787689208984 193 170 152
0.5301130414009094 0.4596077501773834 13.214137077331543 126 124 127
-0.9648887515068054 0.4217204749584198 11.411685943603516 98 109 105
0.22005797922611237 0.9784859418869019 12.962166786193848 125 114 118
0.42586663365364075 0.009822126477956772 12.665600776672363 63 46 56
-0.9872221946716309 -0.5074400901794434 11.413642883300781 87 76 72
0.20064057409763336 0.14665722846984863 13.315784454345703 64 44 55
-0.6221631169319153 -0.5918439030647278 11.684667587280273 178 136 114
-0.3198184669017792 1.1697689294815063 11.295741081237793 60 64 67
0.22583700716495514 0.4058452844619751 13.045523643493652 125 114 118
-0.3847622275352478 -0.6790734529495239 11.290846824645996 198 171 152
0.2721087634563446 -0.21144817769527435 13.003897666931152 117 108 99
0.36527055501937866 0.9250959753990173 12.701184272766113 65 57 68
0.4909587800502777 0.3980903923511505 13.215333938598633 134 121 128
0.6099368333816528 -0.444243848323822 12.467913627624512 110 110 102
-0.514540433883667 -0.530671238899231 11.75502872467041 190 165 143
0.44749704003334045 0.2763456702232361 12.734685897827148 142 117 113
0.3922860324382782 -0.6782568693161011 12.955743789672852 125 114 118
0.026860583573579788 -0.5109882354736328 11.699507713317871 52 54 49
-0.71607506275177 -0.44616854190826416 11.773341178894043 192 164 143
0.45878639817237854 0.550920307636261 12.658763885498047 159 148 156
-1.0310709476470947 -0.34415683150291443 11.093927383422852 145 103 89
-0.9747560024261475 -0.13348014652729034 11.754948616027832 163 127 111
0.3646640479564667 0.6716600656509399 12.625322341918945 133 114 108
0.14598719775676727 -0.6078005433082581 11.78404426574707 125 118 126
-0.38844844698905945 -0.5935578346252441 11.601807594299316 212 191 172
0.5119073390960693 -0.3361051082611084 12.645648002624512 125 110 115
0.5468750596046448 -0.46569928526878357 12.65922737121582 131 128 121
-0.09903176128864288 -0.2580431401729584 11.705644607543945 96 86 74
0.03913335129618645 0.8627309799194336 11.80592155456543 14 14 14
-1.0780909061431885 -0.262196809053421 11.62331485748291 106 78 67
-0.4280024468898773 0.277286171913147 11.833621978759766 138 152 152
-0.3806024193763733 0.32192301750183105 11.853657722473145 72 82 81
-0.7966370582580566 -0.8835740685462952 10.461036682128906 160 148 132
0.21867628395557404 0.9430809617042542 12.844523429870605 133 121 145
-0.36586710810661316 -0.9816995859146118 11.132720947265625 192 195 188
-0.43884509801864624 -0.787584125995636 11.551103591918945 192 173 156
-1.0804921388626099 -0.23960565030574799 11.449687004089355 106 78 67
0.44488030672073364 0.38983774185180664 12.739242553710938 148 137 143
0.4048379063606262 0.2679101526737213 12.684453964233398 96 70 73
-0.665566623210907 -0.9698946475982666 11.312759399414062 237 235 223
0.28667640686035156 -0.8617066144943237 11.675371170043945 122 98 96
-0.34361132979393005 -1.0263917446136475 9.482845306396484 225 210 191
0.38904425501823425 0.4025178849697113 12.667980194091797 155 144 150
-0.4361404478549957 -0.9074878096580505 11.363225936889648 216 219 190
-0.00824438501149416 -0.6182256937026978 11.540660858154297 54 53 51
0.35557839274406433 -0.19181112945079803 12.52745246887207 140 112 109
-0.2694023549556732 0.13979564607143402 11.781362533569336 47 60 69
-0.9485061764717102 -0.7587141394615173 11.326088905334473 92 81 87
0.2765904366970062 -0.9476580023765564 12.16524600982666 144 119 115
-0.6685929298400879 -0.0965186133980751 11.835562705993652 78 67 65
-0.6122644543647766 0.6446430683135986 11.70741081237793 117 121 106
-0.6767330765724182 -0.1740531623363495 11.858325958251953 93 69 65
0.37226542830467224 0.9297915101051331 12.687744140625 65 57 68
0.35216543078422546 0.8796752691268921 12.791206359863281 170 149 146
0.4272107779979706 0.6083330512046814 12.702476501464844 134 98 100
0.19207978248596191 1.0381574630737305 12.336353302001953 127 114 134
-0.6988583207130432 -0.8669294118881226 11.459526062011719 210 186 162
0.35952454805374146 -0.29461193084716797 12.511486053466797 136 106 96
-0.49297770857810974 0.4589747190475464 11.797189712524414 88 90 89
-1.0140657424926758 -0.021599574014544487 11.693192481994629 160 134 117
0.46762555837631226 -0.09633693844079971 12.636856079101562 154 139 142
0.23914994299411774 1.0298644304275513 12.407814025878906 102 85 101
0.37923485040664673 0.24712403118610382 13.270566940307617 150 134 137
-0.2986490726470947 -0.8586015105247498 11.31123161315918 229 239 228
-0.4732877016067505 -1.0327881574630737 10.97569751739502 238 237 219
-0.4492660164833069 -1.0733705759048462 10.901336669921875 153 146 138
-1.1510764360427856 -0.02435910329222679 11.636964797973633 136 124 102
-0.22685031592845917 -0.6496539115905762 11.541936874389648 172 145 118
-0.3972302973270416 -0.8097323775291443 11.356438636779785 125 121 120
-0.5549672842025757 -0.798313558101654 11.424450874328613 148 126 102
0.20064057409763336 0.14665722846984863 13.315784454345703 64 44 55
-0.3847237229347229 0.28965529799461365 11.840627670288086 132 137 143
0.6261677742004395 -0.4111533761024475 12.478532791137695 63 51 37
0.3821659982204437 0.6709752678871155 12.693878173828125 100 85 88
-0.7759579420089722 -0.3111764192581177 11.804910659790039 173 137 121
-0.3204991817474365 0.020178060978651047 11.900516510009766 159 168 151
0.23896951973438263 -0.986607015132904 9.942152976989746 123 115 112
-0.7320839166641235 0.45553895831108093 11.460152626037598 152 160 149
0.30400994420051575 0.6357890367507935 12.50185775756836 131 114 120
-0.8412371277809143 0.07080581784248352 11.804830551147461 58 62 63
-0.3907438814640045 0.15174826979637146 11.896042823791504 146 165 161
0.1001909002661705 -0.22106041014194489 11.798015594482422 103 106 97
0.7177144289016724 0.2880203425884247 12.714376449584961 144 123 130
0.2841290235519409 -0.40978336334228516 12.272809982299805 118 100 96
-0.5349286794662476 0.3720351457595825 11.424112319946289 145 162 156
-0.4139845073223114 0.2947702705860138 11.834830284118652 94 101 111
0.3999260365962982 -0.6907150745391846 13.026756286621094 60 48 52
-0.45221254229545593 -0.9792353510856628 9.779749870300293 247 251 237
-0.8723427653312683 -0.32394230365753174 11.596293449401855 148 106 94
-1.0492844581604004 -0.2868117094039917 11.489784240722656 156 135 108
-0.7695608139038086 -0.056183088570833206 11.852437973022461 60 55 52
-0.03153835982084274 -0.634139358997345 11.503737449645996 125 124 106
0.24536281824111938 -0.00990182626992464 13.049800872802734 60 42 40
0.026860583573579788 -0.5109882354736328 11.699507713317871 52 54 49
-0.8418389558792114 0.08332148939371109 11.71513557434082 58 62 63
0.6130059361457825 0.3800148069858551 12.703705787658691 63 51 55
-0.8373679518699646 -0.7268494367599487 11.528541564941406 206 175 157
0.4162349998950958 -0.3664594888687134 13.04792308807373 156 131 134
0.3216518461704254 -0.7116941213607788 12.304247856140137 59 50 41
-0.36257848143577576 -0.9574563503265381 10.294269561767578 152 158 154
0.447826623916626 0.40745216608047485 12.719966888427734 148 137 143
-0.2551552653312683 -0.4464595317840576 11.824841499328613 53 41 41
-0.7633887529373169 -0.17644284665584564 11.7179536819458 125 93 78
0.25767067074775696 0.6112856268882751 13.235734939575195 142 120 123
-0.24940404295921326 -0.7958690524101257 7.740009784698486 225 232 214
0.4065587818622589 0.26856666803359985 12.713550567626953 96 70 73
-0.3020276427268982 0.15838727355003357 11.851705551147461 68 70 69
-0.29836171865463257 -0.05389149487018585 11.547186851501465 146 130 115
0.18837325274944305 0.8847826719284058 -0.6006109714508057 113 89 79
-0.9996723532676697 0.10393594950437546 11.739520072937012 69 74 70
0.3661065101623535 -0.7962541580200195 12.48353099822998 123 106 99
-0.7567445039749146 -0.38591498136520386 10.991499900817871 118 88 86
-0.7798451781272888 -0.6091611385345459 11.397379875183105 197 175 152
-0.8807310461997986 0.34305983781814575 17.89251136779785 24 23 29
0.44151508808135986 -0.3172682821750641 12.630901336669922 84 60 60
0.3836705684661865 0.5808190703392029 12.738218307495117 158 140 138
0.4117076098918915 -0.5728482007980347 12.598943710327148 130 121 114
0.2822391092777252 -0.1536797434091568 13.02434253692627 69 48 45
-0.8286844491958618 0.8111527562141418 11.124910354614258 113 116 105
-0.32652872800827026 -0.905476987361908 11.411430358886719 237 244 228
-0.6538199186325073 -0.9387266039848328 11.30117416381836 129 123 111
0.471407949924469 -0.3883448541164398 13.107239723205566 114 100 99
-0.4800474941730499 -0.2446916252374649 9.824639320373535 60 58 61
-1.1481982469558716 0.3282014727592468 11.443960189819336 150 157 141
0.40245944261550903 -0.5385191440582275 12.559503555297852 137 121 122
-0.5006435513496399 -0.8746423125267029 11.449262619018555 144 144 132
-0.6190990805625916 -0.916005551815033 11.383296966552734 143 135 124
0.08781903982162476 -1.051133394241333 10.221096992492676 143 152 151
0.23637235164642334 -1.020721435546875 9.736055374145508 128 128 130
-0.4643147587776184 -0.6129701733589172 18.929807662963867 168 236 255
-0.33752602338790894 0.7410932183265686 11.263008117675781 77 79 74
-0.6837862730026245 -0.4052216112613678 11.66530704498291 142 108 98
-0.18832531571388245 -0.7395851612091064 11.441644668579102 108 105 100
-0.5739392042160034 -0.27805256843566895 11.871525764465332 178 142 118
-0.1899925321340561 -0.9045704007148743 11.231680870056152 131 130 125
-0.08590410649776459 -0.13190093636512756 11.793441772460938 138 141 130
-0.5245063900947571 0.6649229526519775 11.644835472106934 108 108 98
-0.6153033971786499 -0.7487832903862 11.585996627807617 141 112 94
-1.1381025314331055 0.061686184257268906 11.622929573059082 74 64 55
-0.8684782981872559 -0.1423959881067276 11.943359375 140 113 102
-0.6947144269943237 -0.661210834980011 11.612509727478027 163 125 112
-0.07052679359912872 0.4060976207256317 11.514101028442383 85 90 93
0.37434932589530945 0.4225553572177887 13.298376083374023 124 109 130
-1.1105924844741821 0.21903552114963531 11.488424301147461 145 159 146
-0.8660775423049927 0.4864940345287323 10.996984481811523 155 162 155
-0.08158241957426071 -0.628372311592102 11.657588958740234 152 140 124
-0.4749046564102173 -1.054320216178894 10.91427230834961 134 133 129
0.14948712289333344 -0.4139223098754883 11.903599739074707 107 113 109
0.42037907242774963 -0.3561020791530609 12.637504577636719 136 124 124
0.017091358080506325 -0.22337238490581512 11.631176948547363 103 103 95
0.3004288077354431 -0.8494309186935425 11.714826583862305 90 62 59
-0.16354626417160034 -0.9692582488059998 9.918036460876465 173 164 155
0.1808876395225525 -0.5141634345054626 11.86504077911377 54 51 46
0.306936115026474 -0.48059576749801636 13.088695526123047 76 51 47
-0.7250005006790161 -1.019741177558899 11.216681480407715 147 158 154
-0.8313286304473877 0.9933028221130371 10.722814559936523 96 106 107
-0.32224640250205994 -0.693498969078064 11.163915634155273 191 184 158
0.43971848487854004 -0.32334044575691223 13.25543212890625 146 134 138
0.5273936986923218 -0.032857559621334076 12.835738182067871 68 72 81
3.615649938583374 6.7115020751953125 -9.092992782592773 51 35 35
-0.9214696288108826 0.053267065435647964 8.056517601013184 166 135 117
-0.5531103014945984 -0.541497528553009 11.694523811340332 153 126 109
0.2532765567302704 -0.28924334049224854 12.447265625 122 97 90
-0.43323490023612976 0.1599709540605545 11.888311386108398 108 123 120
0.6012142896652222 0.5888120532035828 12.71052074432373 90 77 94
0.23391103744506836 0.979870080947876 12.603257179260254 133 122 152
-1.1083812713623047 0.3713192939758301 11.324726104736328 159 161 147
0.4885861277580261 0.15152345597743988 12.673059463500977 136 110 111
-0.6939474940299988 -0.6233463883399963 11.577187538146973 203 175 154
-0.41986584663391113 -0.22011032700538635 11.887775421142578 170 152 128
0.21515126526355743 -0.6547854542732239 10.939003944396973 140 141 146
0.19405408203601837 -0.7280929088592529 11.005783081054688 153 150 161
0.4435500204563141 0.6925596594810486 12.828630447387695 153 136 142
-0.4887900948524475 -0.9737163186073303 9.766785621643066 247 252 246
-0.1898016780614853 0.3442371189594269 11.836873054504395 95 103 105
-0.17132355272769928 -0.8226320147514343 10.303668975830078 237 239 226
-0.322857141494751 0.3468594253063202 11.695549964904785 112 117 121
-0.2707637846469879 -0.014036891981959343 11.852934837341309 157 161 144
-1.1036386489868164 -0.28578099608421326 11.53805160522461 100 75 70
0.24254873394966125 -0.0202319398522377 12.153255462646484 115 102 96
-0.6627542972564697 0.07821952551603317 11.857656478881836 154 165 161
-0.6192380785942078 -0.8643692135810852 10.634072303771973 246 239 223
-0.6499341726303101 0.770484983921051 11.524394035339355 101 104 93
-1.0760810375213623 -0.5740774869918823 11.522270202636719 197 170 151
0.2490033358335495 -0.6060349941253662 11.432561874389648 69 57 61
-0.046422384679317474 -0.39232832193374634 11.717887878417969 143 129 118
-0.11726526916027069 -0.8515140414237976 10.462453842163086 131 130 125
-0.9732428789138794 0.2529081404209137 18.123598098754883 167 149 103
-0.5947104096412659 0.26420217752456665 11.805994033813477 149 161 151
-0.1529396027326584 -0.9375075101852417 11.341679573059082 163 165 143
-0.2720687687397003 -0.7860829830169678 11.529906272888184 212 208 183
-0.553189218044281 -0.03698888421058655 12.147089004516602 162 165 156
0.19443167746067047 1.0787924528121948 12.284395217895508 124 107 123
0.2490033358335495 -0.6060349941253662 11.432561874389648 69 57 61
0.18221180140972137 0.9882919788360596 12.337367057800293 122 104 120
-0.7846274375915527 -0.94074946641922 10.995089530944824 159 150 141
-0.3307744264602661 0.27378636598587036 10.923425674438477 76 73 84
-1.1742080450057983 0.12811698019504547 11.51014518737793 81 83 70
-0.7158008217811584 -0.1445472687482834 11.863800048828125 113 84 78
-0.860126793384552 0.507993757724762 10.901461601257324 147 159 155
-1.0909936428070068 0.12187626957893372 11.586668968200684 141 147 137
-0.7956542372703552 0.33554038405418396 15.150090217590332 56 65 80
-0.6787989139556885 -0.16979560256004333 11.843606948852539 93 69 65
-1.127225399017334 0.3267573118209839 11.432811737060547 96 101 94
-0.35933980345726013 -1.1607626676559448 10.797161102294922 43 43 45
-0.7451863884925842 -0.38110795617103577 11.807849884033203 177 156 135
0.4517595171928406 0.1683131903409958 12.684830665588379 144 134 142
0.21510323882102966 0.8411141633987427 12.665082931518555 66 52 65
-0.32953134179115295 -1.026338815689087 10.494799613952637 145 135 125
0.4004319906234741 0.43192386627197266 12.678102493286133 109 89 90
-0.3112126290798187 -0.9514167904853821 10.139432907104492 233 238 216
0.48154139518737793 -0.5591659545898438 12.643180847167969 182 175 167
-0.3937843441963196 -0.9655918478965759 12.410476684570312 221 225 211
0.2514530122280121 -0.9993746876716614 10.098708152770996 70 61 62
0.6549273133277893 0.49779176712036133 12.75750732421875 88 68 77
0.3056914508342743 -0.5477445721626282 8.008898735046387 48 46 34
-0.8505332469940186 0.09295172989368439 11.80728816986084 152 146 134
-0.3804789185523987 -1.0462725162506104 10.791358947753906 241 225 209
0.5117809772491455 -0.30927109718322754 12.545698165893555 89 73 74
-0.8983587622642517 -0.507050633430481 11.430792808532715 185 162 131
-0.36974653601646423 0.23164011538028717 11.845464706420898 92 99 109
-0.8731579780578613 0.9422970414161682 -1.7369660139083862 200 163 137
-0.45403751730918884 -0.8731667995452881 10.402607917785645 236 244 223
0.11773503571748734 0.6748465895652771 11.792206764221191 11 14 21
0.36071905493736267 4.820803165435791 -42.92109298706055 196 175 154
-0.908213198184967 -0.09697292745113373 7.248370170593262 199 173 148
0.21447783708572388 1.2009536027908325 -1.1593068838119507 192 165 148
-0.5829617381095886 -0.3957452178001404 11.803250312805176 132 105 88
0.006522390525788069 -0.3936174809932709 11.741029739379883 126 116 106
-0.9582558274269104 -0.07359775900840759 11.61174488067627 140 120 109
4.602992057800293 3.8416478633880615 -44.15941619873047 139 125 112
-0.5274484157562256 -0.8737468123435974 11.26581859588623 147 143 131
-0.9582558274269104 -0.07359775900840759 11.61174488067627 140 120 109
-0.049419254064559937 -0.3611547648906708 11.794625282287598 134 115 108
-0.7361128330230713 -0.8885954022407532 9.80028247833252 215 216 200
-0.32953134179115295 -1.026338815689087 10.494799613952637 145 135 125
-0.5830857753753662 -0.12228729575872421 11.885790824890137 81 87 75
-0.296947181224823 -0.9134660363197327 11.474868774414062 144 146 141
-0.21164120733737946 -0.08136271685361862 11.87142562866211 75 81 67
-0.3568331301212311 -0.27051207423210144 11.786870956420898 173 155 133
-0.2884581983089447 -0.17328737676143646 12.243415832519531 110 87 69
-0.3450107276439667 0.2848456799983978 11.825292587280273 80 83 88
0.5127272605895996 0.6527866721153259 12.828462600708008 120 91 111
-0.20432347059249878 0.035065654665231705 11.84654426574707 79 91 87
-0.25789377093315125 0.07539738714694977 11.861027717590332 97 101 100
-0.6391987204551697 -0.20151320099830627 11.843486785888672 159 137 114
-0.28308549523353577 -0.24832835793495178 11.79785442352295 83 64 49
-0.7271296977996826 0.36497682332992554 11.7134428024292 147 167 168
-0.7633887529373169 -0.17644284665584564 11.7179536819458 117 89 78
-0.5105352997779846 -0.23414462804794312 11.877365112304688 164 144 133
-0.7117030620574951 -0.1769653856754303 11.72335433959961 166 142 116
-0.10333339869976044 -0.3924286663532257 11.703473091125488 157 133 109
-0.8303547501564026 -0.25379514694213867 11.656607627868652 151 123 109
-0.27309417724609375 -0.16168919205665588 11.88872241973877 185 177 154
-0.5129567384719849 0.09720413386821747 11.837925910949707 148 163 166
-0.8491634130477905 -0.5128362774848938 11.621378898620605 189 162 143
0.4247109889984131 0.20670555531978607 12.695047378540039 91 72 74
-0.41083216667175293 -0.1569129377603531 11.892149925231934 77 53 51
-0.6469038128852844 0.49469611048698425 11.722004890441895 140 149 144
-0.792912483215332 -0.3878835141658783 11.749801635742188 182 153 137
0.4280555844306946 0.2132897973060608 12.680304527282715 91 72 74
-0.8061469197273254 -0.30236801505088806 11.807496070861816 92 70 57
-0.6093716025352478 -0.026355694979429245 11.87588119506836 156 173 165
-0.6438868641853333 0.17950798571109772 11.861329078674316 146 163 155
-0.49413633346557617 -0.7122008800506592 11.57737922668457 203 188 169
-0.7154443264007568 -0.07331065833568573 11.763320922851562 67 52 59
0.5321446061134338 0.4215678870677948 12.698790550231934 140 125 128
-0.5971395373344421 0.5293352007865906 11.73574161529541 124 134 135
-0.6468502879142761 0.4945440888404846 11.72237491607666 140 149 144
-0.5172680020332336 -0.1789783239364624 11.87753677368164 160 161 145
-0.6285989284515381 -0.320175439119339 11.873026847839355 178 148 120
-0.5767396688461304 0.24138949811458588 11.870737075805664 145 164 162
-0.8886220455169678 -0.21577274799346924 11.637798309326172 167 143 119
-0.4628243148326874 0.08804299682378769 11.861197471618652 159 174 169
-0.7119712829589844 -0.4508262872695923 11.750167846679688 200 159 139
-0.5740719437599182 0.08758770674467087 11.817682266235352 165 177 173
-0.48277705907821655 -0.27924397587776184 11.965481758117676 162 137 115
-0.685700535774231 -0.3188844919204712 11.689990997314453 107 77 75
-0.9454765319824219 -0.535628080368042 11.600900650024414 195 163 142
-0.6045569181442261 0.1400306224822998 11.816202163696289 51 52 56
-0.47227969765663147 0.5031831860542297 11.735763549804688 142 155 145
0.44488030672073364 0.38983774185180664 12.739242553710938 148 139 140
-0.8553268909454346 -0.47223803400993347 11.699132919311523 190 162 141
-0.6379014849662781 0.03152674064040184 11.806343078613281 166 174 176
-0.6047388911247253 0.13876451551914215 11.813350677490234 51 52 56
-0.5571814179420471 -0.4146777093410492 11.829947471618652 199 177 163
-0.867285966873169 0.129998579621315 11.691207885742188 54 58 59
-0.7971532344818115 -0.004945660941302776 11.824295997619629 66 65 61
-0.5009200572967529 -0.41603896021842957 11.55774974822998 101 73 59
-0.7451863884925842 -0.38110795617103577 11.807849884033203 175 150 128
-0.1504659503698349 -0.2029130607843399 11.83577823638916 60 56 47
-0.5737725496292114 -0.24381323158740997 11.904097557067871 74 51 61
-0.5159673690795898 -0.30068865418434143 11.851285934448242 185 163 142
-0.6692092418670654 -0.44214633107185364 11.643007278442383 200 159 139
-0.7823800444602966 -0.48681512475013733 11.756356239318848 177 159 139
-0.7117030620574951 -0.1769653856754303 11.72335433959961 166 142 116
-0.9293471574783325 -0.2379407435655594 11.744507789611816 174 152 129
-0.3872520625591278 0.059102218598127365 11.851523399353027 119 121 116
-0.4792780578136444 -0.42123129963874817 11.698822021484375 188 174 163
0.5173451900482178 -0.4985926151275635 12.633042335510254 36 35 43
0.4273523688316345 0.20792211592197418 12.688549041748047 91 72 74
-0.7152771353721619 -0.08806940168142319 11.857060432434082 67 52 59
-0.840125322341919 -0.09300792962312698 11.701618194580078 42 37 33
0.6451817750930786 0.40914836525917053 12.670870780944824 112 102 113
-0.342646986246109 0.08678163588047028 11.937164306640625 152 163 159
-0.7497190237045288 1.112632155418396 16.47405433654785 28 59 88
-0.6229783296585083 -0.6487027406692505 11.489558219909668 202 175 156
-0.703636646270752 0.14547638595104218 11.081796646118164 164 174 165
-0.7818674445152283 -0.05956803634762764 11.730828285217285 129 112 102
-0.3491847515106201 -0.7063921689987183 11.609153747558594 192 165 148
-0.41733285784721375 0.08539729565382004 11.905549049377441 148 160 160
-0.17052900791168213 -0.11814328283071518 11.86645793914795 144 147 130
-0.3897431492805481 -0.04479704797267914 12.024629592895508 155 166 160
-0.9169371128082275 0.13922502100467682 11.662668228149414 134 135 127
-0.8096424341201782 0.02839619666337967 11.817373275756836 76 71 68
-0.8559477925300598 -0.6435855031013489 10.88587760925293 142 106 90
0.49035125970840454 -0.1829701066017151 12.604424476623535 95 74 79
-0.737877607345581 -0.34205272793769836 11.65452766418457 175 150 128
0.43339863419532776 -0.1418880969285965 12.650976181030273 97 68 70
-0.840926468372345 -0.09334452450275421 11.695112228393555 42 37 33
-0.7639477849006653 -0.4452991485595703 11.79900074005127 106 79 62
-0.4772998094558716 -0.5056753158569336 11.697516441345215 95 72 58
0.447826623916626 0.40745216608047485 12.719966888427734 148 139 140
-0.5454730987548828 -0.4518314003944397 11.803746223449707 187 171 158
-0.5899239778518677 0.17024727165699005 11.883545875549316 153 172 168
-0.19191643595695496 -0.45304232835769653 11.76513957977295 166 141 121
0.546613872051239 -0.19631777703762054 12.627934455871582 90 69 86
-0.41986584663391113 -0.22011032700538635 11.887775421142578 156 154 139
-0.6993119120597839 -0.05501140281558037 11.895772933959961 93 92 88
0.5054328441619873 -0.20643243193626404 12.566543579101562 162 146 147
-0.7009680271148682 0.1412363499403 11.775594711303711 100 110 99
-0.6291955709457397 0.22605429589748383 11.794445991516113 160 165 161
0.4616948068141937 -0.1780594140291214 12.688403129577637 154 137 145
0.4783940613269806 0.019400933757424355 12.640776634216309 173 154 156
-0.5156736969947815 -0.5198986530303955 11.850113868713379 95 72 58
0.4272107779979706 0.6083330512046814 12.702476501464844 124 92 95
-0.41474512219429016 -0.6589200496673584 11.537914276123047 216 193 175
-0.6966606974601746 -0.35261449217796326 11.68314266204834 184 166 144
-1.0913454294204712 -0.2957160472869873 11.445645332336426 180 167 161
-1.0425560474395752 -0.3703208863735199 11.44456958770752 131 89 65
-0.2707637846469879 -0.014036891981959343 11.852934837341309 151 164 154
-0.4800474941730499 -0.2446916252374649 9.824639320373535 94 91 86
-0.08590410649776459 -0.13190093636512756 11.793441772460938 150 154 139
-0.9151408076286316 0.12977229058742523 11.749167442321777 134 135 127
0.445320188999176 0.12794522941112518 12.661009788513184 83 74 79
0.5444698333740234 0.41532647609710693 12.70432186126709 125 114 128
-0.7013064026832581 0.14036408066749573 11.77155876159668 100 110 99
0.4752247631549835 0.7248960733413696 12.79687786102295 122 117 139
-0.6290474534034729 0.18834218382835388 11.896747589111328 73 74 79
-0.5947104096412659 0.26420217752456665 11.805994033813477 140 154 154
-0.311292439699173 0.4307416081428528 11.792841911315918 72 75 84
-0.07052721083164215 -0.42823898792266846 11.663562774658203 138 119 113
-0.85307776927948 -0.15475040674209595 10.908827781677246 170 147 129
-0.11186715960502625 0.11074265837669373 11.846426963806152 125 126 130
-0.7142041921615601 -0.06971054524183273 11.706611633300781 146 128 114
-0.8278973698616028 -0.7077348232269287 11.31729507446289 206 178 157
-0.3203638195991516 0.0036770699080079794 11.848453521728516 55 53 40
-0.3568331301212311 -0.27051207423210144 11.786870956420898 176 161 140
-0.7767035961151123 -0.021772239357233047 11.83094310760498 145 132 113
-0.5017610192298889 -0.47883883118629456 11.603434562683105 182 161 140
0.4264577627182007 0.06657765805721283 12.640922546386719 80 69 73
-0.3018019199371338 -0.2865349054336548 11.78299331665039 159 136 120
-0.6725521087646484 -0.6784441471099854 11.564141273498535 201 172 154
-1.0761520862579346 -0.5044909715652466 11.322195053100586 175 151 125
-0.10545255988836288 -0.6362786293029785 11.532208442687988 147 125 102
0.45387524366378784 0.7077265381813049 12.789376258850098 98 75 93
0.5344341993331909 0.3324069082736969 12.69476318359375 46 38 49
0.4961908757686615 0.18226540088653564 12.740145683288574 89 71 69
-0.09903176128864288 -0.2580431401729584 11.705644607543945 100 73 62
-0.6975067853927612 -0.5421426892280579 11.548077583312988 118 80 67
-0.6066057085990906 -0.07487144321203232 11.797367095947266 149 155 151
-0.30531221628189087 -0.25296837091445923 11.791357040405273 166 155 137
-0.3307744264602661 0.27378636598587036 10.923425674438477 71 81 82
-0.1798558384180069 -0.21690663695335388 11.793050765991211 110 89 70
-0.6975067853927612 -0.5421426892280579 11.548077583312988 118 80 67
-0.22458899021148682 -0.14624905586242676 11.81336784362793 182 169 135
-0.9135848879814148 0.5084514617919922 11.62436294555664 146 154 139
-0.06200090050697327 0.03647913038730621 11.903796195983887 116 127 123
-0.3907438814640045 0.15174826979637146 11.896042823791504 154 161 167
0.46762555837631226 -0.09633693844079971 12.636856079101562 145 136 141
-0.5006435513496399 -0.8746423125267029 11.449262619018555 143 136 126
-0.8650408983230591 0.28199297189712524 11.669178009033203 143 156 146
-0.5267413854598999 -0.14975890517234802 11.802196502685547 136 137 132
-0.8468347191810608 -0.17215508222579956 11.795260429382324 161 134 115
-0.8780981302261353 -0.09550782293081284 11.670964241027832 139 112 93
-0.8438292741775513 -0.7657700777053833 11.449597358703613 206 183 165
-0.5675539970397949 -0.03213267773389816 11.816780090332031 166 169 162
-0.3379594087600708 -0.14223292469978333 11.886570930480957 145 118 107
-0.8225862979888916 -0.17787428200244904 10.871172904968262 111 82 68
0.466697096824646 -0.4914318323135376 12.593229293823242 59 61 76
-0.23305916786193848 0.11214273422956467 11.841307640075684 126 130 129
-1.0854287147521973 -0.31467440724372864 11.600114822387695 180 167 161
-0.7515972256660461 -0.8245949149131775 11.224752426147461 133 102 84
-0.6730155348777771 -0.14128638803958893 11.865158081054688 168 145 129
-0.8653834462165833 0.3292827308177948 11.706297874450684 155 164 159
-0.43192341923713684 -0.5908365845680237 11.585227966308594 197 175 152
-0.3847237229347229 0.28965529799461365 11.840627670288086 123 143 142
-0.5531103014945984 -0.541497528553009 11.694523811340332 150 124 107
-0.2796653211116791 -0.7024268507957458 11.605432510375977 190 162 140
0.5131861567497253 -0.11905845254659653 12.682924270629883 97 76 83
0.40599849820137024 -0.06732621788978577 12.642706871032715 146 142 141
-0.3847237229347229 0.28965529799461365 11.840627670288086 123 143 142
-0.9872221946716309 -0.5074400901794434 11.413642883300781 106 76 66
0.42586663365364075 0.009822126477956772 12.665600776672363 61 57 54
0.7177144289016724 0.2880203425884247 12.714376449584961 134 122 132
-0.558111310005188 -0.8654831647872925 11.392233848571777 217 205 189
-0.5169153809547424 -0.8593105673789978 11.461287498474121 216 188 174
-0.3204991817474365 0.020178060978651047 11.900516510009766 174 184 173
-0.3425389230251312 -0.46653854846954346 11.699409484863281 191 169 146
-0.1682787984609604 -0.8592533469200134 11.416986465454102 199 195 184
-0.10890040546655655 -0.16395194828510284 11.826349258422852 61 71 62
-0.9485061764717102 -0.7587141394615173 11.326088905334473 81 66 71
-0.2707637846469879 -0.014036891981959343 11.852934837341309 151 164 154
0.6742856502532959 0.36000412702560425 12.716531753540039 67 50 66
-0.6275790333747864 -0.4982024133205414 11.723600387573242 199 174 154
0.7686575055122375 0.32150912284851074 12.619816780090332 93 85 100
-0.45149433612823486 -0.7066020965576172 11.573787689208984 187 167 156
-0.9250560402870178 -0.3932156264781952 11.69959831237793 132 104 82
-0.3805742561817169 0.26504719257354736 11.849799156188965 85 89 92
0.4099169075489044 -0.13879314064979553 12.600199699401855 147 135 139
0.5415765047073364 -0.6667994260787964 12.04802417755127 50 37 28
-0.39266839623451233 -0.012728543020784855 11.853070259094238 155 166 160
0.49510806798934937 -0.713189959526062 12.597097396850586 142 132 130
-0.11153770983219147 -0.6681886315345764 11.566967964172363 74 59 52
-0.720690906047821 -0.865797758102417 11.196223258972168 107 88 81
0.4964982569217682 0.18280230462551117 12.728021621704102 89 71 69
-0.6368115544319153 0.64438796043396 11.82510757446289 42 43 38
-0.6223757266998291 0.6778804063796997 11.621454238891602 42 43 38
-0.6464632749557495 -0.3296157419681549 11.712259292602539 182 159 141
-0.9062857031822205 -0.649016261100769 11.520331382751465 155 125 99
-0.32376575469970703 0.423292338848114 11.786972999572754 31 32 34
0.4489896893501282 -0.6165822148323059 12.510259628295898 66 45 52
0.5104900598526001 -0.6627596616744995 12.60094165802002 122 124 113
-0.5829617381095886 -0.3957452178001404 11.803250312805176 123 90 73
-0.634617269039154 0.322290301322937 11.779671669006348 142 159 151
0.3876916170120239 0.3601265549659729 12.668719291687012 151 142 145
0.4424411654472351 0.11779189854860306 12.700631141662598 83 74 79
-1.0425560474395752 -0.3703208863735199 11.44456958770752 131 89 65
-0.7095535397529602 -0.46759849786758423 11.67032527923584 197 168 150
0.5167388319969177 -0.2597540616989136 12.617293357849121 99 75 73
0.5468750596046448 -0.46569928526878357 12.65922737121582 126 118 115
-0.000986725208349526 -1.081024408340454 11.23864459991455 163 171 174
0.4577682912349701 0.6918424367904663 12.795573234558105 108 87 96
0.6099368333816528 -0.444243848323822 12.467913627624512 104 111 104
0.6261677742004395 -0.4111533761024475 12.478532791137695 68 49 35
0.6742856502532959 0.36000412702560425 12.716531753540039 67 50 66
-0.9097063541412354 -0.6328616738319397 11.35301685333252 155 125 99
0.3838830590248108 0.5814752578735352 12.72521686553955 153 138 143
-0.5525100231170654 -0.0135849853977561 11.896519660949707 94 91 82
-0.3691617548465729 0.23024696111679077 11.850757598876953 83 91 93
-0.27916985750198364 0.04398771747946739 11.90132999420166 151 161 152
-0.3450107276439667 0.2848456799983978 11.825292587280273 69 79 81
-0.5943464636802673 -0.28474748134613037 11.906211853027344 161 134 115
-0.8691208362579346 -0.6526807546615601 11.354020118713379 214 180 153
-0.6108604669570923 -0.05103762075304985 11.798887252807617 168 178 177
-0.6574774384498596 -0.5942884683609009 11.666677474975586 208 180 166
-0.43601393699645996 0.3687955439090729 11.845006942749023 140 149 154
-0.6547880172729492 -0.38971441984176636 11.814684867858887 135 95 87
0.7068318724632263 0.26853296160697937 12.713518142700195 78 61 77
-0.32230284810066223 -0.03304224833846092 11.853362083435059 167 169 156
-0.09442046284675598 -0.7473505735397339 11.47971248626709 199 201 188
-0.4139845073223114 0.2947702705860138 11.834830284118652 88 98 99
-0.5970008969306946 0.413132905960083 11.7626371383667 153 158 154
-0.9165722131729126 0.07501821219921112 11.661177635192871 67 63 62
-0.32814452052116394 0.14699462056159973 11.850564956665039 138 149 141
-0.6044974327087402 0.6079853773117065 11.68457317352295 116 121 117
-0.046422384679317474 -0.39232832193374634 11.717887878417969 153 130 114
-0.08136951178312302 -0.6611081957817078 11.581146240234375 65 56 49
0.5599530339241028 -0.6737210154533386 12.336451530456543 105 109 112
0.4099169075489044 -0.13879314064979553 12.600199699401855 147 135 139
-0.8501459360122681 0.6447782516479492 11.514986991882324 146 153 137
-0.642670214176178 0.3570684790611267 11.79709529876709 137 153 153
-0.8813287615776062 0.04363643378019333 11.784902572631836 131 124 116
0.5748057961463928 0.46086469292640686 12.700981140136719 44 39 45
-0.3806024193763733 0.32192301750183105 11.853657722473145 74 84 85
-1.1105924844741821 0.21903552114963531 11.488424301147461 150 157 139
-0.9138529300689697 0.3233048915863037 11.67781925201416 161 167 165
-0.5593350529670715 -0.1022350862622261 11.881148338317871 153 154 146
-0.05426221713423729 0.11071321368217468 11.827512741088867 99 100 102
-0.4994356334209442 -0.7601119875907898 11.504159927368164 206 179 160
0.44325026869773865 -0.42251691222190857 12.608232498168945 178 168 166
-0.753054141998291 -0.8585715293884277 11.196608543395996 211 187 175
0.51289302110672 0.012490862980484962 12.686049461364746 101 72 77
-0.003927642945200205 -0.005329609848558903 11.790718078613281 151 154 143
-0.6576030254364014 0.6048726439476013 11.682206153869629 124 130 130
-0.3805742561817169 0.26504719257354736 11.849799156188965 85 89 92
-0.9238314032554626 -0.08906368166208267 11.648689270019531 80 61 55
-1.0678553581237793 -0.29419052600860596 11.465811729431152 96 62 53
-0.3691617548465729 0.23024696111679077 11.850757598876953 83 91 93
0.5035268664360046 -0.6394954323768616 12.6198148727417 56 47 50
-0.1284903734922409 -0.5366995334625244 11.622538566589355 171 141 117
-0.6503264904022217 -0.4010871946811676 11.834702491760254 135 95 87
-0.3116898536682129 -0.4764421284198761 11.684410095214844 206 168 147
-0.20432347059249878 0.035065654665231705 11.84654426574707 71 73 72
-1.0059987306594849 -0.2683603763580322 11.634111404418945 85 67 63
-0.6627542972564697 0.07821952551603317 11.857656478881836 158 174 164
-0.7567445039749146 -0.38591498136520386 10.991499900817871 111 82 78
-0.2443300038576126 -0.43082091212272644 11.72078800201416 35 34 32
0.37526562809944153 0.900219738483429 12.700602531433105 178 172 156
-1.1522071361541748 0.2681843340396881 11.517725944519043 141 153 143
-0.41788262128829956 0.35611382126808167 12.1687593460083 78 87 84
-0.5245063900947571 0.6649229526519775 11.644835472106934 111 115 101
0.4964976906776428 -0.7422270178794861 12.590819358825684 49 44 38
-0.3878626227378845 -0.5671058893203735 10.784790992736816 95 55 43
0.4065587818622589 0.26856666803359985 12.713550567626953 103 64 67
-0.9013925790786743 0.21109147369861603 10.980607986450195 73 76 65
-0.1773088425397873 -0.9578800201416016 11.13608169555664 194 194 184
-0.6499341726303101 0.770484983921051 11.524394035339355 89 97 82
-1.0310709476470947 -0.34415683150291443 11.093927383422852 140 105 86
-0.45731765031814575 0.24518074095249176 11.868463516235352 106 116 117
0.49035125970840454 -0.1829701066017151 12.604424476623535 95 74 79
0.4449644386768341 -0.04558679088950157 12.641353607177734 70 59 63
-1.017761468887329 -0.4962812662124634 11.576473236083984 181 160 133
0.4962114691734314 -0.40711045265197754 12.531603813171387 175 166 171
-0.1337820142507553 -0.13766062259674072 11.801526069641113 169 171 160
-0.6399733424186707 -0.45485633611679077 11.807957649230957 193 167 144
0.6012142896652222 0.5888120532035828 12.71052074432373 94 76 90
-0.6997342705726624 -0.8448761701583862 11.204298973083496 204 183 156
0.37259554862976074 0.4308544099330902 12.690569877624512 164 145 149
-0.870151937007904 0.46996447443962097 11.617644309997559 150 160 151
-0.446873277425766 -0.8294233083724976 11.483930587768555 86 81 78
-1.0909936428070068 0.12187626957893372 11.586668968200684 153 156 139
-1.0017292499542236 -0.5699028372764587 11.537084579467773 199 173 150
0.20254503190517426 -0.3133818805217743 11.976405143737793 141 121 123
0.40744128823280334 0.3508104979991913 12.690437316894531 106 86 95
0.14598719775676727 -0.6078005433082581 11.78404426574707 124 128 131
-0.8397462964057922 -0.22310666739940643 11.785789489746094 159 137 123
-0.8674910068511963 0.031412508338689804 11.943724632263184 27 40 49
0.43993619084358215 -0.7753627896308899 12.60993766784668 149 137 125
-0.8843315243721008 -0.05544360727071762 11.672123908996582 60 52 41
-0.4591631591320038 0.00042196051799692214 11.84377384185791 119 122 111
-0.501246988773346 -0.45666882395744324 11.778650283813477 94 91 86
-0.7394566535949707 -0.7221203446388245 11.671148300170898 207 185 161
0.5273949503898621 0.7777277231216431 12.824471473693848 204 196 159
-0.18832531571388245 -0.7395851612091064 11.441644668579102 82 82 72
0.4318869113922119 0.4845387041568756 12.752053260803223 100 83 91
-0.6316179633140564 -0.20034687221050262 11.943878173828125 86 64 51
-1.1373944282531738 -0.253767728805542 11.400402069091797 171 152 135
0.6791368722915649 0.37869495153427124 12.510629653930664 163 144 140
-1.0144752264022827 0.034132640808820724 11.661850929260254 151 135 120
-0.490882009267807 0.36132997274398804 11.837956428527832 133 148 153
-0.9855411648750305 0.19936959445476532 11.707477569580078 166 167 159
0.4336315095424652 -0.1399872899055481 12.585176467895508 97 68 70
-0.36974653601646423 0.23164011538028717 11.845464706420898 83 91 93
0.40304699540138245 -0.09431178867816925 12.63767147064209 141 129 131
0.6702533960342407 0.35159024596214294 12.730506896972656 67 50 66
-0.279904842376709 -0.5909477472305298 11.594130516052246 191 160 142
0.45149534940719604 0.02888024039566517 12.696213722229004 92 76 89
0.40297839045524597 -0.097275510430336 12.65813159942627 141 129 131
0.3775511682033539 0.9277685284614563 12.77558708190918 66 61 68
0.4617270827293396 -0.5909570455551147 12.502918243408203 66 45 52
-0.36502450704574585 0.014518535695970058 11.849923133850098 120 121 116
-0.8723427653312683 -0.32394230365753174 11.596293449401855 145 102 86
-0.9020415544509888 0.8495837450027466 16.41256332397461 159 148 128
-0.9443873167037964 0.056540850549936295 11.725642204284668 64 60 57
-0.22074422240257263 -0.6686459183692932 11.534175872802734 93 63 63
-1.1036386489868164 -0.28578099608421326 11.53805160522461 92 74 74
-0.3020276427268982 0.15838727355003357 11.851705551147461 61 65 68
-0.3507639467716217 -0.6840679049491882 11.905265808105469 191 163 139
-0.9079281687736511 -0.4718540906906128 11.641160011291504 196 164 141
-0.5429224371910095 -0.39118579030036926 12.193669319152832 194 162 141
-0.2625764310359955 -0.5583457350730896 11.641270637512207 108 97 95
0.4069153070449829 -0.2097872793674469 12.62784481048584 152 135 143
