ply
format ascii 1.0
element vertex 280
property float x
property float y
property float z
property uchar red
property uchar green
property uchar blue
end_header
-0.645850419998169 0.7564672827720642 4.55087423324585 155 165 157
-0.582122266292572 0.6328023672103882 4.488816261291504 87 86 92
0.10153470188379288 0.8042669296264648 4.569987773895264 159 170 166
0.11775124073028564 0.8293023109436035 4.572948932647705 129 144 147
0.19427081942558289 0.3941360414028168 4.550417423248291 75 57 57
0.24079999327659607 -0.21091820299625397 4.505911827087402 54 43 39
0.14026954770088196 0.81500643491745 4.572072982788086 168 177 176
0.2080143392086029 0.5866327285766602 4.568268775939941 128 111 129
-0.6077497601509094 0.6215317249298096 4.463919639587402 199 189 154
0.16727979481220245 0.815319836139679 4.573411464691162 144 148 149
-0.21620287001132965 0.7149705290794373 4.52032995223999 127 106 105
0.23107551038265228 0.40544208884239197 4.5493645668029785 167 149 147
0.20401450991630554 0.3291415274143219 4.546759128570557 33 34 26
0.2739066183567047 -0.24721664190292358 4.502249717712402 50 61 44
-0.02747545950114727 -0.005278007593005896 4.210745334625244 83 90 72
0.1949494183063507 0.8266114592552185 4.573551654815674 163 168 162
-0.28288018703460693 0.6643640398979187 4.460432052612305 172 142 104
0.1632397472858429 0.4560844600200653 4.553383827209473 38 46 65
-0.02370595932006836 0.4883696436882019 4.467160224914551 155 113 88
0.1852930784225464 0.6853873133659363 4.565331935882568 66 56 64
0.22966282069683075 -0.23186470568180084 4.505148887634277 130 132 110
-0.022445110604166985 -0.10189340263605118 4.195316791534424 186 150 116
-0.1619865894317627 0.8436942100524902 4.577788352966309 65 56 103
0.22658242285251617 -0.21065673232078552 4.5054240226745605 51 40 34
-0.06003865227103233 0.7534670829772949 4.561108589172363 118 133 138
0.1850145310163498 0.1281367689371109 4.532402992248535 144 125 127
0.15897879004478455 0.3948288559913635 4.54791784286499 59 47 51
-0.10665708780288696 -0.07920363545417786 4.18234920501709 93 69 59
0.20558173954486847 0.4576026499271393 4.55625057220459 38 45 71
0.18242019414901733 0.39367109537124634 4.550619602203369 57 45 49
0.25235867500305176 0.16156549751758575 4.528748035430908 110 91 110
-0.005266648251563311 0.7222918272018433 4.583230018615723 51 55 100
0.20223021507263184 0.5559947490692139 4.561914443969727 49 38 46
0.19716569781303406 0.6871373653411865 4.581928253173828 253 250 209
-0.07397300004959106 0.6516426801681519 4.476937770843506 181 181 171
-0.17351993918418884 0.8419541120529175 4.576703071594238 80 74 110
0.16435490548610687 0.4000433087348938 4.556378364562988 230 219 174
0.25252729654312134 -0.23878352344036102 4.505677223205566 40 32 30
-0.09990870952606201 0.7134900689125061 4.562537670135498 188 154 153
-0.43462127447128296 0.7094551920890808 4.422175407409668 105 102 93
0.15797871351242065 0.8275578618049622 4.573977470397949 159 163 166
-0.08701923489570618 -0.16482330858707428 4.148260593414307 215 179 153
0.2538469731807709 -0.25411680340766907 4.504541873931885 179 166 147
0.22966282069683075 -0.23186470568180084 4.505148887634277 130 132 110
0.21913418173789978 0.1229415312409401 4.5374650955200195 126 117 120
0.2611696720123291 -0.20283611118793488 4.506634712219238 48 34 33
-0.510357141494751 0.7115952372550964 4.572134971618652 106 98 119
0.26838621497154236 -0.10122446715831757 4.51323938369751 110 76 77
0.23123686015605927 -0.033769283443689346 4.520476341247559 87 67 78
0.13350479304790497 0.5927620530128479 4.562588691711426 99 83 94
0.2130182832479477 -0.2184334099292755 4.504095554351807 28 15 6
-0.025213586166501045 -0.028011776506900787 4.2064948081970215 98 71 62
0.1054212749004364 0.7061026096343994 4.568345069885254 178 162 126
0.24895484745502472 -0.21254204213619232 4.50733757019043 133 134 120
0.22290074825286865 0.13581490516662598 4.5366621017456055 68 57 73
0.17483392357826233 0.5097228288650513 4.564824104309082 197 174 156
0.015117814764380455 0.7725721597671509 4.559926509857178 145 155 157
-0.3356929123401642 0.8202387094497681 4.566359043121338 106 95 103
0.10795538127422333 0.7013810873031616 4.5670485496521 74 78 79
0.23761780560016632 -0.3832953870296478 4.499027729034424 173 159 148
0.22290074825286865 0.13581490516662598 4.5366621017456055 68 57 73
0.2776317000389099 -0.23579637706279755 4.501803398132324 48 38 29
0.2026047557592392 0.31634074449539185 4.546070575714111 122 117 114
0.18836162984371185 0.7427875995635986 4.598921775817871 142 166 178
0.03144326061010361 0.8302041888237 4.56230354309082 107 108 112
-0.10665708780288696 -0.07920363545417786 4.18234920501709 93 69 59
-0.0936574786901474 -0.14883476495742798 4.156729698181152 214 183 152
0.21841616928577423 -0.00349777122028172 4.52600622177124 247 249 246
-0.025590717792510986 0.6933702826499939 4.466273307800293 117 92 52
0.20592911541461945 -0.2176303118467331 4.505308151245117 191 185 159
0.24655869603157043 0.2245764434337616 4.5359978675842285 119 94 115
0.2469279170036316 0.2061096727848053 4.531847953796387 110 88 100
0.2583034336566925 -0.23477554321289062 4.5040740966796875 110 105 101
-0.08661055564880371 0.11628033220767975 4.1780171394348145 159 165 155
0.23656372725963593 -0.2357567548751831 4.503957748413086 54 38 41
-0.021177196875214577 0.8411415815353394 4.585397720336914 161 136 142
0.058963578194379807 0.7450217604637146 4.586701393127441 43 55 79
0.2227674275636673 -0.2357596457004547 4.504693984985352 38 29 20
0.26555711030960083 -0.0025836240965873003 4.519722938537598 149 126 134
-0.08701923489570618 -0.16482330858707428 4.148260593414307 215 179 153
0.25235867500305176 0.16156549751758575 4.528748035430908 110 91 110
-0.015015024691820145 -0.010912313126027584 4.213217258453369 161 162 148
0.2049865424633026 -0.029438577592372894 4.522466659545898 98 72 81
0.23193217813968658 0.37693241238594055 4.54347562789917 118 116 117
0.14965519309043884 0.42836251854896545 4.549407958984375 155 151 140
0.2622547149658203 0.040519505739212036 4.524340629577637 70 64 78
0.2801937162876129 -0.21624857187271118 4.4998321533203125 53 44 45
0.23656372725963593 -0.2357567548751831 4.503957748413086 54 38 41
-0.05258050933480263 0.027202211320400238 4.202345848083496 180 186 174
0.23484787344932556 -0.21302436292171478 4.507411479949951 156 150 128
0.24252507090568542 -0.21851739287376404 4.5048346519470215 54 36 24
-0.08157472312450409 -0.0883563756942749 4.180883884429932 195 161 133
-0.5078194737434387 0.6528699398040771 4.469609260559082 46 52 52
0.2499847710132599 -0.3796502947807312 4.500948429107666 73 53 42
0.16569168865680695 0.47088822722435 4.555383205413818 151 140 146
0.09619081765413284 0.7277764081954956 4.593130588531494 109 123 123
-0.104532890021801 -0.2380412369966507 4.079209804534912 123 109 96
0.19321352243423462 -0.0332854762673378 4.524150371551514 166 139 144
0.2285551130771637 0.019111627712845802 4.535094738006592 153 141 129
0.24645431339740753 -0.2564910650253296 4.504383563995361 46 35 29
0.18518027663230896 0.2827046811580658 4.548247337341309 162 155 137
0.1887144297361374 -0.07017809897661209 4.520328998565674 103 76 85
0.2541942596435547 -0.19973662495613098 4.508210182189941 149 145 136
0.2776317000389099 -0.23579637706279755 4.501803398132324 48 38 29
0.25995978713035583 -0.24974319338798523 4.5032572746276855 61 52 45
0.21439893543720245 0.01820332370698452 4.529026031494141 45 42 63
0.18993090093135834 -0.05919545888900757 4.5216288566589355 164 141 147
0.22395974397659302 0.5222801566123962 4.556025505065918 72 49 65
0.20302091538906097 0.019230268895626068 4.5290656089782715 154 134 133
-0.0440608412027359 0.03553495183587074 4.214283466339111 94 94 94
-0.1649828404188156 -0.15956728160381317 4.116915702819824 210 169 147
0.21909750998020172 -0.25395137071609497 4.50498628616333 42 23 19
-0.03677297383546829 0.026710564270615578 4.210373401641846 167 170 159
0.2978558838367462 -0.3815325200557709 4.490055561065674 99 80 82
0.2622547149658203 0.040519505739212036 4.524340629577637 70 64 78
0.21946877241134644 -0.20128150284290314 4.508614540100098 48 38 36
0.24220293760299683 0.18945786356925964 4.532629013061523 124 91 98
0.23127855360507965 -0.2537026107311249 4.505244255065918 52 37 34
0.21074341237545013 -0.037079863250255585 4.523029804229736 86 70 81
0.21063709259033203 0.5510919094085693 4.565694332122803 149 119 119
0.21612071990966797 -0.23557470738887787 4.505228042602539 133 123 114
-0.6152298450469971 0.6598588228225708 4.481625556945801 124 120 93
0.18250040709972382 0.5246150493621826 4.564947128295898 119 111 92
-0.11226652562618256 0.03739650174975395 4.186855316162109 179 184 164
0.10341990739107132 0.7154036164283752 4.568131446838379 54 45 36
0.21328935027122498 0.510550856590271 4.556556224822998 62 56 84
-0.6186031103134155 0.6307878494262695 4.474991321563721 104 99 95
0.18320660293102264 0.5101145505905151 4.5647735595703125 85 60 56
0.17108088731765747 0.6032593846321106 4.573719024658203 173 166 140
0.24750454723834991 0.05169448256492615 4.527970314025879 82 63 59
0.1361442655324936 0.5854586958885193 4.562996864318848 159 138 143
0.2978558838367462 -0.3815325200557709 4.490055561065674 99 80 82
0.03581937775015831 0.859693169593811 4.587944507598877 64 61 88
-0.42758306860923767 0.7677483558654785 4.559823513031006 182 190 175
0.19622908532619476 -0.11614862084388733 4.5154128074646 154 131 125
0.24748191237449646 -0.2012813538312912 4.506787300109863 66 50 51
0.16213615238666534 0.4802342355251312 4.553674221038818 85 76 93
0.20298947393894196 0.18146061897277832 4.535865306854248 108 82 93
-0.5423747301101685 0.6377260088920593 4.472991943359375 172 159 140
-0.5016342997550964 0.6497595906257629 4.460644721984863 140 135 113
0.27360185980796814 -0.4076943099498749 4.493332386016846 133 129 120
0.20298947393894196 0.18146061897277832 4.535865306854248 108 82 93
-0.12159924954175949 -0.23196139931678772 4.085575580596924 230 190 164
0.2582109868526459 -0.08439382910728455 4.5176682472229 167 149 149
-0.570274829864502 0.6323578953742981 4.4744744300842285 176 164 148
0.22643327713012695 -0.2736055254936218 4.500914096832275 59 58 74
0.24655869603157043 0.2245764434337616 4.5359978675842285 119 94 115
0.27424126863479614 -0.2548113465309143 4.502238750457764 61 44 37
-0.5492295026779175 0.6429845690727234 4.47446346282959 49 59 61
0.23876412212848663 0.08224514871835709 4.533022880554199 133 116 124
-0.025213586166501045 -0.028011776506900787 4.2064948081970215 98 71 62
0.26686418056488037 -0.05738484859466553 4.515113830566406 106 78 75
0.18954290449619293 0.5181496739387512 4.563657760620117 73 56 66
0.24480317533016205 -0.2481551170349121 4.50270938873291 64 46 44
0.19631552696228027 0.1410503387451172 4.538241386413574 49 51 48
0.031123582273721695 0.7443080544471741 4.5782246589660645 31 38 67
0.22671201825141907 0.16831235587596893 4.534639835357666 95 68 73
0.2591610252857208 0.07631108164787292 4.52430534362793 130 120 118
0.23024576902389526 0.34169092774391174 4.542747974395752 35 35 45
0.16410453617572784 0.34862565994262695 4.545645236968994 43 42 38
-0.569382905960083 0.6632828712463379 4.477768898010254 41 37 38
0.18629124760627747 -0.17192208766937256 4.50892448425293 50 51 53
0.17919810116291046 -0.0005501411505974829 4.521847248077393 108 79 75
0.027791490778326988 0.726905345916748 4.578249931335449 63 60 103
0.19107572734355927 -0.2162037491798401 4.503822326660156 154 143 125
0.22868746519088745 0.6997451186180115 4.570831775665283 91 106 113
-0.5147349834442139 0.6310702562332153 4.459932804107666 96 100 101
0.2682686150074005 -0.2518852651119232 4.505673408508301 152 145 126
0.2682686150074005 -0.2518852651119232 4.505673408508301 152 145 126
0.1466486006975174 0.58283531665802 4.566871166229248 71 44 53
0.19745489954948425 0.6461105942726135 4.5720109939575195 132 121 138
0.17083604633808136 0.3596627712249756 4.547666072845459 41 37 28
0.24621494114398956 0.24052122235298157 4.537184715270996 116 94 107
0.1887655258178711 -0.2615079879760742 4.500143527984619 187 182 160
0.1915195882320404 -0.16414597630500793 4.509425163269043 154 146 123
-0.11860085278749466 -0.08946343511343002 4.168186187744141 188 154 126
0.01667569763958454 -0.26164495944976807 4.291305065155029 164 124 98
0.19324631989002228 0.8392713665962219 4.572023868560791 89 115 138
0.27251389622688293 -0.29397228360176086 4.495993137359619 167 164 133
0.2285551130771637 0.019111627712845802 4.535094738006592 153 141 129
0.10148464888334274 0.8752747774124146 4.60114049911499 196 203 213
0.21010294556617737 0.12345042079687119 4.539523124694824 80 61 57
0.27976417541503906 -0.383041650056839 4.489898681640625 122 111 109
-0.26540112495422363 0.6625449657440186 4.454755783081055 195 159 111
0.24100716412067413 0.3370542526245117 4.538930892944336 44 43 49
0.21074341237545013 -0.037079863250255585 4.523029804229736 86 70 81
-0.12728220224380493 -0.2429882436990738 4.068780899047852 144 142 130
0.25426748394966125 0.30724236369132996 4.53167724609375 86 105 120
-0.3383893370628357 0.7607240676879883 4.559603214263916 86 97 129
-0.1404358297586441 -0.03996863588690758 4.174805641174316 100 94 82
0.22671201825141907 0.16831235587596893 4.534639835357666 95 68 73
0.2506684958934784 0.23339776694774628 4.53338623046875 152 135 151
-0.135267972946167 0.025493690744042397 4.179806232452393 104 110 106
0.22920367121696472 0.32324090600013733 4.542538166046143 119 119 121
0.022972527891397476 0.7217419743537903 4.563936710357666 176 145 153
0.21310648322105408 0.13990047574043274 4.5403242111206055 119 115 130
0.23956719040870667 -0.07697257399559021 4.521302223205566 109 89 82
0.23386086523532867 -0.20157843828201294 4.50874137878418 60 49 47
-0.02500269189476967 0.0484955795109272 4.209746360778809 71 81 73
0.23103095591068268 0.5573290586471558 4.562075138092041 142 126 129
0.26945221424102783 -0.1860370635986328 4.503866672515869 158 147 127
0.2046995908021927 -0.08170580863952637 4.517209053039551 111 83 82
0.25346240401268005 -0.1904945820569992 4.51013708114624 47 42 39
-0.10788162052631378 0.1683732122182846 4.150521755218506 152 153 147
0.012427286244928837 0.7348842620849609 4.58859920501709 64 63 105
0.18199552595615387 -0.0863705649971962 4.5162200927734375 111 83 82
-0.46997401118278503 0.650062084197998 4.442729473114014 45 45 47
0.22920367121696472 0.32324090600013733 4.542538166046143 119 119 121
0.2701023817062378 -0.42300182580947876 4.497684955596924 131 127 102
0.15477314591407776 0.5791486501693726 4.568077087402344 138 117 114
0.24482277035713196 0.23096096515655518 4.541791915893555 156 150 154
0.2518005073070526 -0.44009217619895935 4.498590469360352 44 39 36
0.25331878662109375 0.04015558212995529 4.528226852416992 136 115 120
-0.518531858921051 0.6552388072013855 4.468828201293945 42 47 43
0.2591610252857208 0.07631108164787292 4.52430534362793 130 120 118
-0.04929342120885849 0.10439957678318024 4.194494724273682 99 105 101
-0.14666083455085754 -0.029085524380207062 4.170063495635986 186 170 137
-0.044242821633815765 0.06799028813838959 4.198493003845215 157 153 150
-0.12728220224380493 -0.2429882436990738 4.068780899047852 144 142 130
0.17511363327503204 0.09554111212491989 4.529960632324219 162 143 139
-0.46865490078926086 0.6611190438270569 4.442831516265869 117 106 78
0.2410043329000473 -0.004179863259196281 4.527435779571533 120 90 92
0.17535045742988586 -0.1643960326910019 4.502974033355713 182 179 162
0.15975618362426758 0.5607491135597229 4.5669097900390625 73 63 72
-0.01787749119102955 0.011954137124121189 4.213107585906982 165 164 146
0.1590883880853653 0.467630535364151 4.553483486175537 87 81 95
0.16334839165210724 0.5753876566886902 4.566536903381348 77 72 79
-0.03358206897974014 -0.038215942680835724 4.205757141113281 154 132 108
0.07952837646007538 0.7179754972457886 4.584989547729492 198 179 149
0.2632211446762085 -0.43554019927978516 4.495589733123779 153 132 105
0.2692376375198364 -0.047752466052770615 4.515227794647217 165 152 146
0.27593445777893066 -0.49605923891067505 4.486210823059082 167 132 126
0.20929352939128876 0.735192060470581 4.594289302825928 175 180 174
0.27852368354797363 -0.08136237412691116 4.512044906616211 145 134 132
0.2866065800189972 -0.4017099440097809 4.486335754394531 129 115 114
0.23045463860034943 -0.3995809257030487 4.500324249267578 169 154 133
0.25113752484321594 -0.002453973051160574 4.5243821144104 162 141 146
-0.6478883028030396 0.6512062549591064 4.472766876220703 43 48 51
0.2325482964515686 -0.4072205722332001 4.494100093841553 77 55 41
-0.5222005248069763 0.6485602259635925 4.463877201080322 121 109 87
0.13570144772529602 0.6002709865570068 4.563790798187256 171 153 153
0.2505709230899811 0.02927923947572708 4.524536609649658 59 54 76
0.04464658722281456 0.7183445692062378 4.573063373565674 173 144 138
0.23197950422763824 -0.26359495520591736 4.502975940704346 157 154 135
-0.1308881938457489 -0.030014902353286743 4.1801533699035645 174 178 161
0.01667569763958454 -0.26164495944976807 4.291305065155029 164 124 98
0.27428120374679565 -0.09597305208444595 4.511870861053467 153 135 133
0.2587479054927826 -0.2194044440984726 4.5071306228637695 61 44 37
0.18612299859523773 0.7834124565124512 4.574891567230225 72 83 101
0.26686418056488037 -0.05738484859466553 4.515113830566406 106 78 75
0.27133631706237793 -0.45904621481895447 4.489075183868408 162 155 137
0.24100716412067413 0.3370542526245117 4.538930892944336 44 43 49
0.18199552595615387 -0.0863705649971962 4.5162200927734375 111 83 82
0.25113752484321594 -0.002453973051160574 4.5243821144104 162 141 146
-0.16103996336460114 -0.09393911063671112 4.152898788452148 194 156 133
0.21708405017852783 -0.03448448330163956 4.520430088043213 135 116 112
-0.4775126874446869 0.661541223526001 4.445459365844727 33 38 31
-0.03677297383546829 0.026710564270615578 4.210373401641846 167 170 159
0.259406715631485 -0.06189237907528877 4.521069526672363 159 135 133
-0.5373790860176086 0.647429347038269 4.475280284881592 46 46 34
-0.14640797674655914 -0.019997552037239075 4.169366359710693 137 139 128
0.20336368680000305 -0.2553867697715759 4.503269195556641 51 42 27
0.21063081920146942 0.09635181725025177 4.535225868225098 148 133 104
0.24631959199905396 -0.031528208404779434 4.52744722366333 156 135 130
0.27333468198776245 -0.00015429151244461536 4.516579627990723 67 53 68
0.26095646619796753 0.025041572749614716 4.520693778991699 63 59 82
0.219120055437088 0.8257932066917419 4.5773444175720215 167 183 183
0.08837693184614182 0.7135868668556213 4.58108377456665 105 88 78
0.2520308792591095 0.17829357087612152 4.528097629547119 121 100 115
-0.6571280360221863 0.6176025867462158 4.447742938995361 217 204 170
0.27428120374679565 -0.09597305208444595 4.511870861053467 153 135 133
0.17330582439899445 -0.11181887239217758 4.509868621826172 179 155 155
0.300590842962265 -0.3739034831523895 4.4839701652526855 154 136 132
0.2733382284641266 -0.20408935844898224 4.505068778991699 62 55 62
0.15205173194408417 0.6042129397392273 4.571375370025635 85 74 88
-0.4812847971916199 0.6362714171409607 4.447021484375 142 139 124
0.22395974397659302 0.5222801566123962 4.556025505065918 72 49 65
0.26095646619796753 0.025041572749614716 4.520693778991699 63 59 82
0.18154115974903107 -0.045499999076128006 4.518040180206299 116 89 94
0.259406715631485 -0.06189237907528877 4.521069526672363 159 135 133
