ply
format ascii 1.0
element vertex 168
property float x
property float y
property float z
property uchar red
property uchar green
property uchar blue
end_header
-0.6874725818634033 0.7005771994590759 3.5484089851379395 63 79 113
0.2003454864025116 0.39553460478782654 3.4441299438476562 148 158 150
0.07451002299785614 0.1391366869211197 3.4525818824768066 103 124 117
0.2994436025619507 -0.1882369965314865 3.3801701068878174 82 60 37
-0.13219286501407623 0.07413262873888016 3.4704506397247314 146 151 144
-0.14255544543266296 0.8443319797515869 3.4487311840057373 156 157 117
0.06744178384542465 0.12977607548236847 3.447969913482666 39 36 27
0.048164546489715576 0.12127856910228729 3.442139148712158 33 31 34
-0.025313260033726692 -0.11510340124368668 3.432888984680176 171 141 113
0.048164546489715576 0.12127856910228729 3.442139148712158 33 31 34
-0.5842353701591492 0.7977570295333862 3.4562082290649414 198 191 163
-0.5742325782775879 0.854932963848114 3.4354395866394043 39 38 54
-0.12123756855726242 0.8441286683082581 3.447584629058838 144 143 112
-0.007324386388063431 0.6783475875854492 3.7271432876586914 49 49 47
-0.5842353701591492 0.7977570295333862 3.4562082290649414 198 191 163
-0.08253508806228638 0.16554005444049835 3.48146653175354 47 48 42
-0.06991425156593323 0.12191127240657806 3.452514171600342 131 145 145
-0.6874725818634033 0.7005771994590759 3.5484089851379395 63 79 113
0.029417458921670914 0.03590613976120949 3.4184443950653076 126 113 96
-0.14255544543266296 0.8443319797515869 3.4487311840057373 156 157 117
-0.7102011442184448 0.5369197130203247 3.630425453186035 53 57 92
-0.17348988354206085 0.8447932600975037 3.451766014099121 151 152 120
-0.7368118166923523 0.7546136975288391 3.591738700866699 39 39 29
-0.7274730801582336 0.5436972379684448 3.6212308406829834 140 150 149
-0.7187787294387817 0.5381054282188416 3.6261706352233887 27 28 48
-0.7505346536636353 0.6944893002510071 3.5781304836273193 29 31 44
-0.3681052029132843 0.8727806806564331 3.438298463821411 60 47 65
-0.040000662207603455 0.11628152430057526 3.4448354244232178 43 44 39
-0.1143806129693985 0.13657574355602264 3.4865825176239014 50 55 48
-0.690887987613678 0.7082895636558533 3.5490901470184326 23 25 46
-0.1441379189491272 -0.07455453276634216 3.4662842750549316 181 180 160
0.07866227626800537 -0.059230245649814606 3.425562858581543 140 108 85
0.058618828654289246 -0.07115500420331955 3.424882173538208 71 56 51
-0.1143806129693985 0.13657574355602264 3.4865825176239014 50 55 48
0.04407711327075958 -0.16564799845218658 3.4469852447509766 147 120 101
0.16271255910396576 0.7953734397888184 3.481218099594116 135 147 143
-0.1996465027332306 -0.12697292864322662 3.5295276641845703 152 145 103
-0.038847580552101135 0.08073579519987106 3.437110185623169 75 63 49
-0.07904649525880814 0.22888007760047913 3.523940324783325 72 72 82
-0.10949676483869553 0.012898380868136883 3.449968099594116 55 49 49
-0.7292212843894958 0.5512278079986572 3.619199514389038 25 26 28
-0.09880948811769485 0.7678560018539429 3.712885856628418 66 64 49
0.09515691548585892 0.899616539478302 3.4542386531829834 42 39 48
0.09382957220077515 0.875127911567688 3.4493789672851562 30 34 45
-0.7406104207038879 0.5393731594085693 3.6304469108581543 30 40 49
0.05145560950040817 -0.1339745968580246 3.4381515979766846 169 145 121
-0.028498301282525063 -0.16286729276180267 3.450180768966675 98 57 29
-0.06843817979097366 0.17664936184883118 3.4803240299224854 110 127 143
-0.18157386779785156 0.8589407205581665 3.4493610858917236 60 49 45
-0.04007270187139511 -0.08410604298114777 3.423250675201416 71 52 46
-0.7406104207038879 0.5393731594085693 3.6304469108581543 30 40 49
-0.1871371567249298 0.8197662830352783 3.459752082824707 217 211 185
0.103645920753479 0.8683069348335266 3.455716609954834 118 121 104
-0.12298208475112915 0.13191960752010345 3.486806869506836 105 121 121
-0.1681428700685501 0.8402596712112427 3.4569971561431885 63 52 60
0.08221695572137833 -0.16261446475982666 3.4506051540374756 181 164 148
-0.7385415434837341 0.661174476146698 3.5767905712127686 89 101 113
-0.11894296109676361 0.11116527765989304 3.4772233963012695 59 51 48
-0.3959340751171112 0.7832363247871399 3.5090110301971436 85 72 53
0.06716030091047287 -0.06893996149301529 3.425797700881958 78 33 27
0.058618828654289246 -0.07115500420331955 3.424882173538208 71 56 51
0.06333928555250168 0.8878644704818726 3.451643228530884 49 38 44
-0.09181685000658035 0.8237128853797913 3.4596364498138428 71 55 32
0.045101597905159 -0.1405022144317627 3.442629814147949 164 128 102
0.03989424929022789 0.08397725969552994 3.43051815032959 93 88 94
0.09440557658672333 0.20861417055130005 3.4849164485931396 42 43 35
0.09382957220077515 0.875127911567688 3.4493789672851562 30 34 45
-0.007324386388063431 0.6783475875854492 3.7271432876586914 49 49 47
-0.09771092236042023 0.8478471636772156 3.4501469135284424 142 127 104
-0.1936383843421936 0.017539381980895996 3.504164457321167 79 61 51
-0.6220026016235352 0.8378683924674988 3.4344537258148193 46 41 47
-0.09560606628656387 -0.013506738469004631 3.441481351852417 116 119 100
-0.45180854201316833 0.6925716996192932 3.917555093765259 45 32 26
0.042186133563518524 0.20094150304794312 3.4761359691619873 46 48 45
-0.24568714201450348 0.7737515568733215 3.6001415252685547 80 77 58
-0.10832413285970688 0.12330572307109833 3.4801249504089355 141 153 153
0.07570958882570267 0.2602713108062744 3.513918161392212 31 29 30
-0.013010763563215733 -0.15693607926368713 3.4411356449127197 182 149 118
-0.040000662207603455 0.11628152430057526 3.4448354244232178 43 44 39
-0.04165870323777199 -0.03553599864244461 3.423652410507202 92 60 39
-0.14153911173343658 -0.05635865032672882 3.4643585681915283 170 174 151
-0.08610448241233826 -0.011950143612921238 3.4364500045776367 72 59 42
-0.6024671196937561 0.8627274632453918 3.4385573863983154 102 108 98
-0.17850464582443237 0.8510625958442688 3.4491729736328125 70 62 49
0.08849046379327774 0.1252373903989792 3.4508955478668213 93 102 101
0.003504973603412509 -0.13800084590911865 3.4361236095428467 132 81 54
-0.0464596226811409 0.7192125916481018 3.700300693511963 115 118 91
-0.8217166066169739 0.820625364780426 3.4430959224700928 65 51 66
-0.6394679546356201 0.8545169830322266 3.4395830631256104 43 41 52
-0.3364846110343933 0.8869022727012634 3.444185495376587 36 37 55
0.03616204857826233 0.8464680910110474 3.4654974937438965 58 41 59
-0.0010944540845230222 0.8498701453208923 3.462590456008911 61 48 66
-0.04591210186481476 0.01774931699037552 3.420413017272949 60 42 30
0.05145560950040817 -0.1339745968580246 3.4381515979766846 169 145 121
-0.5356892943382263 0.8295462727546692 3.433403730392456 63 52 50
0.04136284813284874 0.2594817280769348 3.5095438957214355 38 39 34
-0.18951861560344696 0.195935919880867 3.587437629699707 59 57 44
-0.7866746187210083 0.658065915107727 3.617189407348633 97 106 113
-0.10916414856910706 0.9335581660270691 3.4624712467193604 64 89 96
-0.4461580216884613 0.6320393681526184 3.9094502925872803 103 101 86
0.0018962934846058488 0.24600471556186676 3.5024662017822266 89 117 131
0.030645830556750298 -0.0550207681953907 3.419766426086426 119 79 54
0.03375210613012314 0.19409485161304474 3.473001003265381 97 123 124
-0.775607168674469 0.5897725224494934 3.627915620803833 170 178 155
0.042186133563518524 0.20094150304794312 3.4761359691619873 46 48 45
0.11470343172550201 -0.1506682187318802 3.462191343307495 77 46 25
0.12205342203378677 0.007104418706148863 3.4270832538604736 93 57 45
0.0007175517384894192 0.27103954553604126 3.5252106189727783 23 32 31
0.103645920753479 0.8683069348335266 3.455716609954834 118 121 104
-0.8058615326881409 0.6480081081390381 3.6388537883758545 203 211 198
0.050840090960264206 -0.22839152812957764 3.4831175804138184 185 154 133
0.1095481663942337 0.7904195189476013 3.46269154548645 167 158 127
-0.5866706967353821 0.8271008133888245 3.437634229660034 55 47 45
-0.09535937756299973 0.9320236444473267 3.4611897468566895 21 36 41
-0.001477558515034616 -0.07292003184556961 3.4272077083587646 114 100 91
0.030726801604032516 0.11034829169511795 3.438444137573242 106 127 132
-0.47705090045928955 0.8035184741020203 3.460838556289673 40 45 65
-0.81425541639328 0.654467761516571 3.6465914249420166 86 108 122
-0.009836939163506031 0.10007432848215103 3.435974359512329 103 119 118
0.13399766385555267 0.002744511002674699 3.4339759349823 138 105 96
-0.09560606628656387 -0.013506738469004631 3.441481351852417 116 119 100
0.04737909883260727 -0.2210925817489624 3.482846975326538 150 97 65
0.12729379534721375 -0.17890577018260956 3.489330291748047 164 117 87
-0.6064997315406799 0.8023582100868225 3.4475176334381104 92 73 66
0.18157035112380981 0.7266918420791626 3.4756321907043457 76 82 82
-0.6024671196937561 0.8627274632453918 3.4385573863983154 102 108 98
-0.6220026016235352 0.8378683924674988 3.4344537258148193 46 41 47
-0.7803530097007751 0.6376778483390808 3.6214423179626465 72 76 59
0.12884891033172607 -0.14808444678783417 3.458664894104004 61 28 13
-0.7821283936500549 0.8977492451667786 3.4372828006744385 77 76 90
-0.12707529962062836 -0.050386786460876465 3.4603185653686523 103 91 69
-0.03258490562438965 -0.1679108440876007 3.453958034515381 146 130 94
-0.8093713521957397 0.8712335824966431 3.433225631713867 96 112 102
-0.19087910652160645 0.907292366027832 3.4526734352111816 70 79 76
-0.10908611863851547 0.9179485440254211 3.4569694995880127 31 37 37
-0.008318987675011158 0.09287146478891373 3.4354264736175537 75 63 65
0.058618828654289246 -0.07115500420331955 3.424882173538208 71 56 51
0.007792710792273283 -0.06240908429026604 3.4068093299865723 99 64 60
-0.3653046786785126 0.88016676902771 3.438720226287842 122 124 100
-0.29133638739585876 0.8213264346122742 3.457303047180176 47 34 41
-0.7662216424942017 0.5931293964385986 3.6163127422332764 180 186 176
-0.509416937828064 0.7839402556419373 3.472471237182617 44 42 30
-0.18309979140758514 0.8856764435768127 3.448089122772217 42 38 37
-0.16737370193004608 0.08842837810516357 3.4983344078063965 106 112 98
-0.10471250116825104 0.1471332311630249 3.4844563007354736 101 110 105
-0.11733028292655945 -0.06920601427555084 3.452470302581787 130 123 94
-0.3665485680103302 0.8110270500183105 3.461704730987549 50 44 44
0.0698244720697403 0.8313130140304565 3.4762415885925293 177 164 145
-0.02073555812239647 -0.10234036296606064 3.425139904022217 111 75 59
0.04737909883260727 -0.2210925817489624 3.482846975326538 150 97 65
0.052782271057367325 0.8430094718933105 3.464874505996704 60 50 59
0.10599818080663681 -0.052165817469358444 3.4310505390167236 149 110 81
0.07762932032346725 0.8425235748291016 3.471926689147949 82 66 69
0.058987509459257126 0.871720552444458 3.452450752258301 107 111 96
0.004076532553881407 -0.123163603246212 3.427158832550049 169 137 112
-0.052754152566194534 -0.2269124984741211 3.495194911956787 152 124 77
0.09036898612976074 0.8900476694107056 3.454652786254883 178 179 145
-0.1584683060646057 0.08655811846256256 3.493112802505493 154 162 149
-0.1287415325641632 0.18569709360599518 3.5207388401031494 51 49 50
0.003504973603412509 -0.13800084590911865 3.4361236095428467 132 81 54
0.06640109419822693 0.9119914174079895 3.4543344974517822 57 51 61
-0.7531605958938599 0.6561439633369446 3.5888354778289795 197 204 186
0.0698244720697403 0.8313130140304565 3.4762415885925293 177 164 145
-0.11620539426803589 0.19708864390850067 3.5210092067718506 116 113 120
-0.17850464582443237 0.8510625958442688 3.4491729736328125 70 62 49
-0.16737370193004608 0.08842837810516357 3.4983344078063965 106 112 98
-0.02073555812239647 -0.10234036296606064 3.425139904022217 111 75 59
0.07082284241914749 0.8813198208808899 3.4520959854125977 159 146 114
