ply
format ascii 1.0
element vertex 694
property float x
property float y
property float z
property uchar red
property uchar green
property uchar blue
end_header
-0.1487441062927246 -0.39019647240638733 8.283336639404297 199 200 169
-0.9188688397407532 0.03875476494431496 8.659953117370605 69 74 70
-0.8290717601776123 0.3406454026699066 8.680037498474121 132 148 135
-0.3884459435939789 1.0017223358154297 9.18309497833252 51 50 55
-0.7071725130081177 -0.5999764800071716 8.617146492004395 201 177 153
-0.7761934399604797 0.3938545286655426 8.6997709274292 144 149 129
-0.767492949962616 0.6019653677940369 9.276874542236328 43 53 62
-0.8105756044387817 0.506292998790741 9.032139778137207 53 48 42
-0.3217826187610626 -0.26299118995666504 8.262160301208496 139 123 107
-0.847107470035553 -0.49028339982032776 8.78499698638916 185 152 117
-0.6472541689872742 -0.7201536893844604 9.058321952819824 237 244 228
-0.6030186414718628 -0.7220452427864075 8.818557739257812 129 123 111
-0.4164356291294098 -0.8683326244354248 9.122718811035156 84 85 89
-0.730682909488678 0.22318704426288605 8.529770851135254 127 140 133
-0.8571060299873352 0.121778704226017 8.642107963562012 146 159 149
-0.759660005569458 0.20849516987800598 8.561358451843262 150 157 141
-0.5573087930679321 -0.2176821529865265 8.342329025268555 189 190 174
-0.9014121890068054 0.31251955032348633 9.120223999023438 88 87 85
-0.7149938941001892 -0.6915811896324158 8.936707496643066 144 144 132
-1.007136583328247 -0.10015669465065002 9.39713191986084 43 44 46
-0.6480093002319336 -0.7097780108451843 8.848480224609375 143 135 124
-0.7426750063896179 0.013192588463425636 8.46834945678711 103 81 68
-0.5979444980621338 -0.8860393166542053 9.256041526794434 143 152 151
-0.8740461468696594 -0.4748551547527313 9.044662475585938 200 176 150
-0.9027482271194458 0.11568533629179001 8.686904907226562 133 137 123
-0.8484224677085876 0.18967275321483612 8.603941917419434 107 118 112
-0.8599003553390503 0.35147055983543396 9.217405319213867 81 85 84
-0.8096125721931458 0.40591442584991455 9.146050453186035 77 79 74
-0.9192118048667908 -0.2571360170841217 8.739457130432129 162 125 109
-0.7599988579750061 -0.6211925745010376 9.16779899597168 108 105 100
-0.6224458813667297 -0.6233646273612976 8.647917747497559 212 195 165
-0.6604233980178833 -0.7386297583580017 9.147223472595215 131 130 125
-0.9361135363578796 -0.19181855022907257 9.295292854309082 138 141 130
-0.8513786196708679 0.41147559881210327 9.032352447509766 108 108 98
-0.8801059126853943 0.09401436150074005 8.662147521972656 117 123 113
-0.827968955039978 0.021471884101629257 8.560579299926758 74 64 55
-0.804938018321991 -0.5237109661102295 8.81799602508545 163 125 112
-0.6234791278839111 0.3681095540523529 8.549165725708008 109 127 127
-0.9612608551979065 -0.25387564301490784 9.10232925415039 138 115 99
-0.7017876505851746 -0.017310190945863724 8.43391227722168 139 107 92
-0.6922564506530762 0.12584218382835388 8.444905281066895 151 152 144
-0.7671141028404236 -0.6277794241905212 9.079373359680176 188 162 135
-0.7841096520423889 0.3695873022079468 9.30754280090332 22 26 25
-0.9085094928741455 0.16381503641605377 9.321063995361328 85 90 93
-0.8384082317352295 -0.5403627753257751 9.260433197021484 152 140 124
-0.6764094829559326 -0.050994303077459335 8.406880378723145 134 111 97
-0.418908953666687 -0.8157947659492493 8.930809020996094 134 133 129
-0.8612465858459473 0.38281115889549255 9.340639114379883 58 60 55
-0.752537190914154 -0.08151298016309738 8.491155624389648 118 89 75
-0.8811894655227661 -0.2649361789226532 8.714363098144531 179 143 119
-0.8363906145095825 -0.35820555686950684 8.63355827331543 168 127 105
-0.9649753570556641 -0.2827053964138031 9.345137596130371 103 103 95
-0.8515889644622803 -0.5730233788490295 9.407379150390625 111 119 122
-0.5903395414352417 0.5572581887245178 8.744080543518066 111 120 125
-0.4569513201713562 -0.9543758034706116 9.202367782592773 115 126 128
-0.7221105098724365 0.1697370707988739 8.478731155395508 105 117 117
-0.5146111845970154 -0.7681605219841003 8.770039558410645 147 158 154
-0.6226938962936401 0.5817241668701172 8.802539825439453 96 106 107
-0.578724205493927 -0.10137385129928589 8.404073715209961 159 150 135
-0.8753986954689026 -0.46574342250823975 8.881314277648926 197 169 145
-0.4455679655075073 -0.08108345419168472 8.298138618469238 155 166 149
-0.8876211047172546 0.34885385632514954 9.041611671447754 82 83 78
-0.9660574197769165 0.06826303154230118 8.840421676635742 137 139 128
-0.6510264277458191 0.615037739276886 8.981865882873535 25 31 29
-0.23502583801746368 -0.31297817826271057 8.25436782836914 181 178 159
-0.7770189046859741 0.5138025879859924 9.098862648010254 49 46 41
-0.7830895185470581 -0.378499835729599 8.57630729675293 175 139 113
-0.6023571491241455 0.4650913178920746 8.62486457824707 126 134 137
-0.802070140838623 -0.5379922986030579 8.774901390075684 205 163 139
-0.8670519590377808 0.1629193276166916 8.68299388885498 144 150 140
-0.994209349155426 0.042201731353998184 9.071871757507324 108 123 120
-0.9002040028572083 0.3558608293533325 9.227017402648926 26 36 37
-0.37995222210884094 -0.20598773658275604 8.274590492248535 171 173 152
-0.28873661160469055 -0.9330674409866333 9.006773948669434 94 106 102
-0.7880601286888123 0.2134513109922409 8.589749336242676 159 161 147
-0.6801005601882935 -0.27967941761016846 8.40542221069336 185 157 136
-0.6228398680686951 0.3580695688724518 8.522298812866211 110 127 137
-0.8043273687362671 -0.4990152418613434 8.821186065673828 203 175 154
-0.5462919473648071 -0.9100227355957031 9.216646194458008 117 124 130
-0.8529656529426575 -0.3025364875793457 8.67354679107666 188 143 120
-0.849321722984314 0.5790717601776123 9.366159439086914 45 42 35
-0.8455314636230469 0.08470185846090317 8.58018684387207 147 155 142
-0.8267601132392883 0.3364817798137665 8.711899757385254 121 127 113
-0.8416052460670471 0.4444849193096161 9.043783187866211 61 60 55
-0.36322301626205444 0.8275701403617859 9.054315567016602 60 65 59
-0.8415295481681824 -0.08279330283403397 8.711869239807129 139 117 94
-0.42107537388801575 -0.8006080985069275 8.871713638305664 247 252 246
-0.6813148856163025 0.46617937088012695 8.709609031677246 112 124 114
-0.5226413011550903 -0.2943825125694275 8.332273483276367 171 154 126
-0.7286986708641052 0.43384769558906555 8.711892127990723 126 142 129
-0.7152408361434937 0.5043905377388 9.139469146728516 68 58 57
-0.8571060299873352 0.121778704226017 8.642107963562012 146 159 149
-0.3994775712490082 -0.3105768859386444 8.289043426513672 179 153 126
-0.359939843416214 -0.7263659238815308 8.577082633972168 219 227 206
-0.6814650297164917 0.046094417572021484 8.434743881225586 130 97 80
-0.7802466154098511 0.35242873430252075 8.644762992858887 132 145 138
-0.9216301441192627 0.16541792452335358 9.260601043701172 95 103 105
-0.3333638608455658 -0.7810319662094116 8.673872947692871 165 180 177
-0.9487696290016174 0.15376150608062744 9.151875495910645 112 117 121
-0.5253032445907593 -0.07264917343854904 8.323468208312988 149 156 138
-0.4480423033237457 -0.6971227526664734 8.600584030151367 141 130 112
-0.9570596814155579 -0.3156428933143616 9.09576416015625 149 114 94
-0.5304601788520813 0.6725618243217468 9.069710731506348 52 51 47
-0.7078952789306641 -0.3255893290042877 8.428690910339355 164 138 115
-0.7885352969169617 -0.10853474587202072 8.51835823059082 133 105 81
-0.6162362098693848 -0.7027546167373657 8.824553489685059 246 239 223
-0.9401242136955261 0.22776417434215546 9.377673149108887 65 71 71
-0.8729522228240967 0.009175049141049385 9.408629417419434 49 51 50
-0.8216260671615601 0.34208887815475464 9.204842567443848 55 58 51
-0.8836632966995239 0.2849278450012207 9.260693550109863 82 80 81
-0.7576565742492676 0.4585673213005066 8.747773170471191 114 119 112
-0.8569490313529968 -0.37418049573898315 9.302271842956543 143 129 118
-0.8060864806175232 -0.2875064015388489 8.664652824401855 187 150 124
-0.6543604135513306 -0.7380204796791077 9.14743709564209 131 130 125
-0.9017265439033508 -0.4285554587841034 9.232362747192383 169 133 109
-0.9296553730964661 -0.13223111629486084 8.676596641540527 156 132 108
-0.8528459668159485 0.401668518781662 9.187687873840332 41 46 42
-0.6952430605888367 -0.63596510887146 9.111316680908203 212 208 183
-0.8647242188453674 -0.15357545018196106 8.594911575317383 130 98 83
-0.5405094623565674 -0.7233359813690186 8.722464561462402 159 150 141
-0.9788651466369629 0.03833748772740364 9.138324737548828 76 73 84
-0.7334126830101013 0.07949052006006241 8.52780818939209 81 83 70
-0.9811129570007324 0.07281758636236191 9.306504249572754 102 104 99
-0.9482828974723816 0.04041773080825806 8.80109691619873 110 122 108
-0.8274405002593994 0.059580955654382706 8.58926773071289 141 147 137
-0.6942688822746277 -0.6298320293426514 8.699441909790039 194 157 138
-0.09189361333847046 -1.061629056930542 9.20030689239502 125 101 101
-0.4931577146053314 -0.046709831804037094 8.30132007598877 162 163 145
-0.5159059762954712 0.4302125871181488 8.523394584655762 113 124 128
-0.3853820860385895 0.8219253420829773 9.09874439239502 61 62 67
-0.9454358816146851 0.24019229412078857 9.431509971618652 41 44 49
-0.47823193669319153 -0.1072157695889473 8.294063568115234 121 124 115
-0.4406715929508209 -0.8280029296875 9.008635520935059 145 135 125
-0.6457908749580383 0.4730915129184723 8.734818458557129 118 129 131
-0.839932382106781 -0.5155395269393921 9.204917907714844 177 150 129
-0.5449416041374207 -0.7943918704986572 9.001105308532715 233 238 216
-0.6349596381187439 0.3176065981388092 8.50716781616211 143 163 174
-0.9066568613052368 -0.32658255100250244 9.293231964111328 129 125 116
-0.8788062334060669 -0.44275012612342834 9.17699909210205 185 157 120
-0.61271733045578 0.031187450513243675 8.378056526184082 150 122 98
-0.55839604139328 -0.9229849576950073 9.33646297454834 102 88 87
-0.5907182693481445 0.6526333093643188 9.002435684204102 66 65 73
-0.8265197277069092 0.42483842372894287 8.841971397399902 109 116 108
-0.5908627510070801 -0.8981956243515015 9.24910831451416 123 133 135
-0.6183329820632935 0.5967035889625549 9.141899108886719 38 35 28
-0.6114463210105896 0.5511541962623596 8.743706703186035 116 125 124
-0.708534836769104 0.6075426936149597 9.079951286315918 41 40 35
-0.9317819476127625 -0.09155783802270889 9.369528770446777 53 63 64
-0.9490442276000977 0.022401727735996246 8.767051696777344 152 146 134
-0.4770564138889313 -0.824394941329956 8.970788955688477 241 225 209
-0.6227112412452698 0.39069658517837524 8.56866455078125 135 151 148
-0.8720046877861023 -0.4884055554866791 8.897469520568848 220 173 157
-0.9276125431060791 0.38186219334602356 9.415678977966309 35 38 31
-0.9854034185409546 0.16596995294094086 9.207462310791016 81 87 83
-0.8647242188453674 -0.15357545018196106 8.594911575317383 130 98 83
-0.9420678019523621 -0.33958765864372253 9.022709846496582 173 143 115
-0.9987205862998962 0.08330841362476349 9.118123054504395 92 99 109
-0.662146270275116 0.5077548027038574 8.752416610717773 120 121 123
-0.5878133773803711 -0.7270006537437439 8.924203872680664 236 244 223
-0.8963502049446106 -0.28520217537879944 8.664584159851074 164 126 103
-0.5651699304580688 -0.02424810081720352 8.349215507507324 161 136 106
-0.5727075934410095 0.00621512345969677 8.362256050109863 136 111 91
-0.9252365827560425 0.1567876785993576 9.283488273620605 81 83 82
-0.7945455312728882 -0.18152719736099243 8.507440567016602 148 116 95
-0.4806493818759918 -0.15089476108551025 8.282288551330566 145 148 127
-0.3947383165359497 -0.8141434788703918 8.79552936553955 236 217 200
-0.4569513201713562 -0.9543758034706116 9.202367782592773 115 126 128
-0.4682946801185608 0.2337944507598877 8.379999160766602 137 152 147
-0.7945455312728882 -0.18152719736099243 8.507440567016602 148 116 95
-0.809596598148346 -0.5132154226303101 8.767786979675293 207 172 144
-0.6755387187004089 0.5572189688682556 9.130244255065918 60 62 51
-0.618293046951294 -0.4028431475162506 8.416290283203125 185 150 118
-0.7596566081047058 -0.3718933165073395 8.530322074890137 178 149 117
-0.5425568222999573 0.6817554235458374 8.983755111694336 36 44 47
-0.8278829455375671 -0.37817347049713135 9.349952697753906 126 116 106
-0.9602773189544678 -0.04920250549912453 9.254805564880371 112 117 111
-0.5015186667442322 -0.336351603269577 8.385538101196289 193 171 150
-0.8714096546173096 -0.4479622542858124 8.886314392089844 182 146 122
-0.3967386484146118 -0.7266015410423279 8.719388961791992 215 216 200
-0.9208236336708069 -0.1424608826637268 9.305469512939453 114 119 115
-0.7860800623893738 0.04724504053592682 8.451029777526855 105 82 64
-0.7102399468421936 -0.4634273946285248 8.724997520446777 209 169 134
-0.9615030288696289 -0.2651327848434448 9.146109580993652 83 64 49
-0.923791766166687 0.2052338421344757 8.86905574798584 147 167 168
-0.8873515725135803 -0.3793218731880188 9.260350227355957 157 133 109
-0.975610613822937 -0.1966080665588379 9.162033081054688 185 177 154
-0.8589978814125061 -0.41263458132743835 8.719596862792969 189 162 143
-0.9120321273803711 0.2959309220314026 8.934565544128418 140 149 144
-0.809964656829834 -0.5765923261642456 8.957038879394531 203 188 169
-0.901961088180542 0.3178428113460541 8.97336196899414 124 134 135
-0.912171483039856 0.29583850502967834 8.934599876403809 140 149 144
-0.926092267036438 -0.20693880319595337 8.715636253356934 167 143 119
-0.8058332204818726 -0.41703107953071594 8.64562702178955 195 163 142
-0.9521913528442383 0.23012720048427582 9.015570640563965 142 155 145
-0.93709397315979 0.040744684636592865 8.753949165344238 54 58 59
-0.9402118921279907 -0.23092108964920044 9.247634887695312 60 56 47
-0.8958401679992676 -0.37957391142845154 8.78235149383545 177 159 139
-0.9216127395629883 -0.20894747972488403 8.683446884155273 174 152 129
-0.9881019592285156 -0.011196509934961796 9.138813972473145 152 163 159
-0.8252720832824707 -0.5325090885162354 8.869210243225098 202 175 156
-0.7853625416755676 -0.5779482126235962 9.060821533203125 192 165 148
-0.951509952545166 -0.1705976128578186 9.240518569946289 144 147 130
-0.9259810447692871 0.0511104092001915 8.719075202941895 134 135 127
-0.9551298022270203 -0.023502016440033913 8.788811683654785 76 71 68
-0.748953104019165 -0.5544482469558716 8.698200225830078 142 106 90
-0.9015354514122009 -0.42375969886779785 8.978517532348633 95 72 58
-0.8930181264877319 -0.40935784578323364 9.195884704589844 166 141 121
-0.9015354514122009 -0.42375969886779785 8.978517532348633 95 72 58
-0.8354172706604004 -0.5473304986953735 9.020830154418945 216 193 175
-0.8301419019699097 -0.2522842586040497 8.562654495239258 180 167 161
-0.8301129937171936 -0.30880871415138245 8.592244148254395 131 89 65
-0.9846575260162354 -0.09558436274528503 9.173001289367676 151 164 154
-0.9383847117424011 -0.19245672225952148 9.294936180114746 150 154 139
-0.9259810447692871 0.0511104092001915 8.719075202941895 134 135 127
-0.6552726626396179 -0.5738892555236816 8.602359771728516 207 185 172
-0.9694291353225708 0.12554581463336945 8.958902359008789 140 154 154
-0.9233615398406982 0.23334282636642456 9.17197036743164 72 75 84
-0.8669753670692444 -0.4059346318244934 9.280502319335938 138 119 113
-0.9539121985435486 -0.013285551220178604 9.296350479125977 125 126 130
-0.744065523147583 -0.560600221157074 8.7166109085083 206 178 157
-0.9870567321777344 -0.08016849309206009 9.138830184936523 55 53 40
-0.9068242907524109 -0.40796205401420593 8.956335067749023 182 161 140
-0.9561575651168823 -0.29083943367004395 9.12981128692627 159 136 120
-0.8135813474655151 -0.5420861840248108 8.83112907409668 201 172 154
-0.7625475525856018 -0.4021768867969513 8.556594848632812 175 151 125
-0.7903937101364136 -0.5541553497314453 9.235772132873535 147 125 102
-0.7847932577133179 -0.5373812913894653 8.774527549743652 202 164 141
-0.8998570442199707 -0.3289628028869629 9.28007698059082 100 73 62
-0.8639371991157532 -0.4519793689250946 8.825722694396973 118 80 67
-0.9322243928909302 -0.10142916440963745 8.711844444274902 145 120 90
-0.9613792896270752 -0.2673777937889099 9.129855155944824 166 155 137
-0.9816387891769409 0.03878219053149223 9.138795852661133 71 81 82
-0.9455666542053223 -0.24828796088695526 9.221376419067383 110 89 70
-0.8639371991157532 -0.4519793689250946 8.825722694396973 118 80 67
-0.9628466963768005 -0.1942165493965149 9.195621490478516 182 169 135
-0.8350417613983154 0.325865775346756 8.744135856628418 146 154 139
-0.934901237487793 -0.06590154767036438 9.322809219360352 116 127 123
-0.9797928333282471 0.036996979266405106 9.100362777709961 154 161 167
-0.6909413933753967 -0.6892803907394409 8.936965942382812 143 136 126
-0.9475347995758057 0.06598890572786331 9.250168800354004 81 81 81
-0.9403670430183411 -0.12097374349832535 8.731813430786133 139 112 93
-0.7244377732276917 -0.589479923248291 8.700181007385254 206 183 165
-0.9779364466667175 -0.1765502244234085 9.123359680175781 145 118 107
-0.8977831602096558 0.31887105107307434 9.09015941619873 106 112 110
-0.9679847955703735 -0.0061791385523974895 9.208135604858398 126 130 129
-0.8301419019699097 -0.2522842586040497 8.562654495239258 180 167 161
-0.6825059652328491 -0.6488213539123535 8.75933837890625 133 102 84
-0.9224600791931152 0.2824991047382355 9.073893547058105 118 123 126
-0.8997436761856079 0.1921970546245575 8.766705513000488 155 164 159
-0.9435341358184814 0.03661838173866272 9.289815902709961 99 111 111
-0.8592384457588196 -0.5025451183319092 9.010344505310059 197 175 152
-0.9428154230117798 0.10723762214183807 9.224475860595703 89 99 100
-0.9777376651763916 0.12997333705425262 9.112306594848633 123 143 142
-0.8812654614448547 -0.4519444704055786 8.928689956665039 150 124 107
-0.7953429222106934 -0.5808380246162415 9.110998153686523 190 162 140
-0.9777376651763916 0.12997333705425262 9.112306594848633 123 143 142
-0.8117029666900635 -0.4096605181694031 8.621315956115723 106 76 66
-0.6981685161590576 -0.681053638458252 8.895292282104492 217 205 189
-0.7088388800621033 -0.6780492663383484 8.927230834960938 216 188 174
-0.9906579852104187 -0.06325093656778336 9.14217758178711 174 184 173
-0.9157541990280151 -0.41755741834640503 9.085760116577148 191 169 146
-0.6917853951454163 -0.7021123170852661 9.173442840576172 199 195 184
-0.9329671263694763 -0.20847326517105103 9.280051231384277 61 71 62
-0.6732602715492249 -0.5794902443885803 8.622804641723633 81 66 71
-0.9846575260162354 -0.09558436274528503 9.173001289367676 151 164 154
-0.8934205770492554 -0.41263440251350403 8.8779878616333 199 174 154
-0.8067774176597595 -0.5742931962013245 8.987372398376465 187 167 156
-0.8086190819740295 -0.3826947808265686 8.614973068237305 132 104 82
-0.9805774688720703 0.113295778632164 9.113396644592285 85 89 92
-0.8976023197174072 -0.4461907744407654 9.061135292053223 173 140 109
-0.7768942713737488 -0.5689533948898315 9.232409477233887 74 59 52
-0.6634397506713867 -0.6797854900360107 8.777323722839355 107 88 81
-0.8340322971343994 0.4286108911037445 8.96040153503418 42 43 38
-0.8340322971343994 0.4286108911037445 8.96040153503418 42 43 38
-0.7674127221107483 -0.5020069479942322 8.664752006530762 155 125 99
-0.935834527015686 0.22287270426750183 9.163558006286621 31 32 34
-0.8977831602096558 0.31887105107307434 9.09015941619873 106 112 110
-0.9637244343757629 0.16704055666923523 8.93476390838623 142 159 151
-0.8301129937171936 -0.30880871415138245 8.592244148254395 131 89 65
-0.881622850894928 -0.41551265120506287 8.837890625 197 168 150
-0.6183340549468994 -0.8770503401756287 9.268450736999512 163 171 174
-0.7674127221107483 -0.5020069479942322 8.664752006530762 155 125 99
-0.959589421749115 0.10605315864086151 8.85183048248291 134 147 138
-0.9813963770866394 0.08733931928873062 9.119193077087402 83 91 93
-0.9890466928482056 -0.04984443634748459 9.172506332397461 151 161 152
-0.9690116047859192 0.12311014533042908 9.140290260314941 69 79 81
-0.7692367434501648 -0.5203307271003723 8.69265079498291 214 180 153
-0.8570000529289246 -0.4796767830848694 8.850665092468262 208 180 166
-0.9768343567848206 0.19233857095241547 9.080658912658691 140 149 154
-0.7483993172645569 -0.6239601969718933 9.228656768798828 199 201 188
-0.9775592088699341 0.1351669430732727 9.09171199798584 88 98 99
-0.9435611963272095 0.23077674210071564 8.96665096282959 153 158 154
-0.9217121005058289 0.004772177431732416 8.714001655578613 67 63 62
-0.9806879162788391 0.024437785148620605 9.142745018005371 138 149 141
-0.8704826235771179 0.37343788146972656 8.97236442565918 116 121 117
-0.8774330019950867 -0.37731966376304626 9.30138874053955 153 130 114
-0.7847064733505249 -0.5664218664169312 9.255013465881348 65 56 49
-0.8053082227706909 0.41153115034103394 8.795097351074219 146 153 137
-0.9494830965995789 0.19883891940116882 8.932518005371094 137 153 153
-0.9400823712348938 -0.010976233519613743 8.738104820251465 131 124 116
-0.9677980542182922 0.15490791201591492 9.118010520935059 74 84 85
-0.8244953155517578 0.11942243576049805 8.581159591674805 150 157 139
-0.896811842918396 0.18951883912086487 8.732623100280762 161 167 165
-0.9355229735374451 -0.016895391047000885 9.334663391113281 99 100 102
-0.7673236727714539 -0.6113851070404053 8.947668075561523 206 179 160
-0.67136150598526 -0.671105146408081 8.755926132202148 211 187 175
-0.9325073957443237 -0.10418552160263062 9.307218551635742 94 99 95
-0.7213684916496277 -0.27306219935417175 8.448931694030762 95 77 65
-0.9233334064483643 -0.10496963560581207 9.362353324890137 151 154 143
-0.8633611798286438 0.3744572699069977 8.934915542602539 124 130 130
-0.9805774688720703 0.113295778632164 9.113396644592285 85 89 92
-0.9244046211242676 -0.11326917260885239 8.698277473449707 80 61 55
-0.8406485319137573 -0.25264278054237366 8.57981014251709 96 62 53
-0.9813963770866394 0.08733931928873062 9.119193077087402 83 91 93
-0.8730677366256714 -0.46483492851257324 8.881576538085938 196 171 149
-0.9501153826713562 0.4086398482322693 9.416471481323242 48 51 60
-0.8519982695579529 -0.48034435510635376 9.230371475219727 171 141 117
-0.9048483371734619 -0.4279748499393463 9.106426239013672 206 168 147
-0.9713799953460693 -0.06346802413463593 9.223533630371094 71 73 72
-0.8608250021934509 -0.22668102383613586 8.622076988220215 85 67 63
-0.8980881571769714 -0.37394431233406067 8.800148010253906 111 82 78
-0.9179834127426147 -0.3991354703903198 9.158473014831543 35 34 32
-0.7973790168762207 0.1643408089876175 8.553905487060547 141 153 143
-0.8726034164428711 0.3562230169773102 9.13841438293457 78 87 84
-0.8559120297431946 0.40881600975990295 9.031966209411621 111 115 101
-0.752444863319397 -0.6969062089920044 9.292227745056152 102 104 103
-0.8688691258430481 -0.4486103951931 8.864449501037598 196 165 147
-0.8118985891342163 -0.5629296898841858 9.026896476745605 95 55 43
-0.9002015590667725 0.20818834006786346 8.749924659729004 73 76 65
-0.5853732824325562 -0.7754712104797363 9.145601272583008 194 194 184
-0.7993828654289246 0.4896724820137024 8.947769165039062 89 97 82
-0.8190259337425232 -0.36175328493118286 8.607242584228516 140 105 86
-1.018107533454895 -0.15815642476081848 9.449378967285156 72 71 77
-0.9795777201652527 0.1049109697341919 9.057901382446289 106 116 117
-0.7044419050216675 -0.43499958515167236 8.50517463684082 98 88 78
-0.8062422275543213 -0.3886491060256958 8.598434448242188 181 160 133
-0.9469460248947144 -0.1933581680059433 9.260592460632324 169 171 160
-0.9116886854171753 -0.36063244938850403 8.882807731628418 193 167 144
-0.664059042930603 -0.6661308407783508 8.793426513671875 204 183 156
-0.8742833733558655 0.2888541519641876 8.77164363861084 150 160 151
-0.722957968711853 -0.6600663661956787 8.978734016418457 86 81 78
-0.8519586324691772 0.053850360214710236 8.589936256408691 153 156 139
-0.7822823524475098 -0.4383464455604553 8.60153579711914 199 173 150
-0.782008945941925 -0.48229366540908813 8.638887405395508 204 177 150
-0.9375529885292053 0.007713281083852053 8.751925468444824 27 40 49
-0.938454806804657 -0.09149660915136337 8.729903221130371 60 52 41
-0.7332233190536499 -0.5955113768577576 8.739847183227539 207 185 161
-0.7564294338226318 -0.6210339665412903 9.167930603027344 82 82 72
-0.8050116300582886 -0.21955619752407074 8.531817436218262 171 152 135
-0.8917012810707092 -0.011854220181703568 8.640223503112793 151 135 120
-0.6729589700698853 -0.5164668560028076 8.548883438110352 168 124 95
-0.7142194509506226 -0.416526198387146 8.51266860961914 190 171 154
-0.8958947658538818 0.10573913902044296 8.672110557556152 166 167 159
-0.8925466537475586 0.23764213919639587 9.281126022338867 67 81 82
-0.9813963770866394 0.08733931928873062 9.119193077087402 83 91 93
-0.979331374168396 0.107975073158741 9.041622161865234 106 116 118
-0.8508973717689514 -0.5098944306373596 9.118291854858398 191 160 142
-0.701711118221283 -0.500633716583252 8.559747695922852 216 190 155
-1.00193190574646 -0.20552802085876465 9.443502426147461 89 99 98
-0.7145646214485168 -0.16293464601039886 8.422697067260742 64 53 51
-0.9578675031661987 -0.12095622718334198 9.251261711120605 125 125 123
-0.9904959797859192 -0.06985154002904892 9.107539176940918 120 121 116
-0.5843884944915771 -0.7033825516700745 8.671463966369629 215 203 181
-0.8948596119880676 -0.2842484414577484 8.717205047607422 145 102 86
-0.5330571532249451 -0.6180257797241211 8.531193733215332 203 175 154
-0.938367486000061 -0.002955607371404767 8.693981170654297 64 60 57
-0.8145736455917358 -0.5692018866539001 9.153185844421387 93 63 63
-0.9195060133934021 -0.021121058613061905 9.311285018920898 79 88 83
-0.8303365111351013 -0.23653283715248108 8.553312301635742 92 74 74
-0.8461053371429443 -0.17076008021831512 8.583867073059082 163 136 115
-0.9820425510406494 0.03025043196976185 9.162750244140625 61 65 68
-0.7903241515159607 -0.13510699570178986 8.492009162902832 149 114 95
-0.823078453540802 -0.5525814890861511 9.114909172058105 191 163 139
-0.8745700716972351 -0.48730209469795227 9.134194374084473 108 97 95
-0.9124691486358643 0.29336822032928467 9.134032249450684 40 50 42
-0.7106147408485413 -0.192217156291008 8.423133850097656 169 153 128
-0.8572606444358826 0.09890018403530121 8.605286598205566 118 126 105
-0.8963473439216614 0.3171679973602295 8.876407623291016 148 157 152
-0.9286837577819824 -0.22895872592926025 9.28285026550293 120 125 119
-0.7970027327537537 -0.5473714470863342 9.253703117370605 172 164 145
-0.8805525898933411 -0.13395941257476807 8.615593910217285 147 120 99
-0.945881724357605 0.5074899196624756 9.528216361999512 58 44 41
-0.6358165740966797 -0.5900271534919739 8.59246826171875 120 95 88
-0.6034861207008362 -0.673744261264801 8.6890287399292 223 192 172
-0.8783041834831238 -0.47459784150123596 9.045252799987793 198 174 146
-0.8767992854118347 -0.4492637813091278 8.885741233825684 172 136 112
-0.6850167512893677 -0.6953305006027222 9.171771049499512 186 188 175
-0.880847692489624 0.3750477731227875 9.015753746032715 104 105 99
-0.9404743909835815 -0.34394538402557373 9.127825736999512 163 136 117
-0.8538900017738342 -0.4317169189453125 9.293553352355957 157 136 119
-0.8697873950004578 -0.010437805205583572 8.59577751159668 67 67 59
-0.741083562374115 -0.2649873197078705 8.4692964553833 179 151 127
-0.8420480489730835 -0.23351909220218658 8.574536323547363 84 75 78
-0.85875403881073 0.37569954991340637 9.15800666809082 25 31 29
-0.7847064733505249 -0.5664218664169312 9.255013465881348 65 56 49
-0.9485947489738464 -0.26572030782699585 9.171470642089844 134 95 78
-0.9386107325553894 0.2619074881076813 9.045475959777832 86 87 89
-0.8666885495185852 -0.5054082870483398 9.041616439819336 218 193 173
-0.7169539332389832 -0.6746395230293274 9.13927173614502 229 227 214
-0.8449091911315918 0.002933806972578168 8.5715913772583 157 140 124
-0.9902846813201904 0.022832460701465607 9.156174659729004 66 68 65
-0.950091540813446 -0.3059134781360626 9.27359676361084 99 96 87
-0.9016554355621338 0.14448244869709015 8.69909954071045 167 173 173
-0.6993392109870911 -0.3128308057785034 8.442403793334961 172 155 135
-0.9274275898933411 0.24269014596939087 9.162102699279785 28 32 31
-0.9786244630813599 0.07658808678388596 9.130576133728027 143 153 155
-0.8695555925369263 0.3038058876991272 8.810612678527832 124 128 111
-0.912540078163147 0.25094395875930786 9.188102722167969 36 35 41
-0.6199349761009216 -0.7558242678642273 8.933915138244629 246 255 238
-0.8820063471794128 -0.45057305693626404 8.907975196838379 198 170 146
-0.9142337441444397 -0.382242888212204 9.157014846801758 168 138 114
-0.6568776965141296 -0.7263373136520386 9.018465042114258 215 220 213
-0.939802885055542 0.22985760867595673 8.93578052520752 148 153 146
-0.7771889567375183 -0.6102350354194641 8.954374313354492 205 187 165
-0.8985458016395569 0.138198122382164 8.777483940124512 127 138 122
-0.8345788717269897 -0.5032618641853333 8.821781158447266 206 177 159
-0.8438832759857178 -0.46487027406692505 9.346604347229004 62 61 56
-0.8695555925369263 0.3038058876991272 8.810612678527832 124 128 111
-0.8770194053649902 0.2978508472442627 9.281859397888184 61 60 58
-0.8176159262657166 -0.5553144812583923 9.150165557861328 181 153 141
-0.935834527015686 0.22287270426750183 9.163558006286621 31 32 34
-0.8509703278541565 -0.04956791549921036 8.606308937072754 146 120 97
-0.8466832041740417 -0.2476155161857605 8.592635154724121 170 135 129
-0.852080225944519 -0.13864819705486298 8.57387638092041 159 126 111
-0.9558032751083374 0.18969105184078217 9.114104270935059 133 147 147
-0.7283776998519897 -0.20536358654499054 8.444536209106445 106 79 68
-0.9400073885917664 0.16182972490787506 9.19028377532959 62 63 65
-0.8552559614181519 -0.21418984234333038 8.594975471496582 161 133 111
-0.6126684546470642 -0.5944562554359436 8.569355964660645 119 102 95
-0.7790629267692566 -0.10651641339063644 8.47378158569336 121 93 72
-0.9064031839370728 -0.29494306445121765 9.275833129882812 99 97 85
-0.9146818518638611 -0.16953442990779877 8.696454048156738 179 146 127
-0.8071980476379395 0.06401962041854858 8.529951095581055 75 75 67
-0.9146818518638611 -0.16953442990779877 8.696454048156738 179 146 127
-0.6183340549468994 -0.8770503401756287 9.268450736999512 163 171 174
-0.9190171957015991 -0.2685418128967285 9.297083854675293 90 96 86
-0.8143815398216248 -0.38993436098098755 8.632206916809082 189 168 149
-0.7466796636581421 -0.7731038331985474 9.38581657409668 131 117 117
-0.9797605276107788 0.10227070748806 9.085714340209961 140 158 158
-0.9110612273216248 -0.332661896944046 9.37720775604248 38 39 34
-0.8616601228713989 0.3558500111103058 9.276769638061523 24 31 37
-0.886439859867096 0.1581648290157318 8.6836519241333 137 154 144
-0.8965780735015869 -0.04920674487948418 8.635842323303223 163 135 124
-0.8714479804039001 -0.36769357323646545 9.321755409240723 53 47 51
-0.8155937194824219 -0.5254601836204529 8.817880630493164 152 115 106
-0.9555774331092834 0.18226628005504608 8.976861953735352 137 155 159
-0.935736894607544 0.1478123962879181 9.210980415344238 60 60 62
-0.9474716186523438 -0.16156473755836487 8.816068649291992 159 126 107
-0.8695555925369263 0.3038058876991272 8.810612678527832 124 128 111
-0.8780385851860046 0.23798024654388428 9.33057689666748 29 37 40
-0.9297849535942078 0.12020910531282425 9.29561996459961 74 78 77
-0.920295238494873 -0.3193836510181427 9.227441787719727 166 134 119
-0.7613414525985718 -0.6335877180099487 8.98979663848877 192 178 151
-0.8100053071975708 -0.4865227937698364 8.743964195251465 207 169 146
-0.862617015838623 -0.3169909715652466 8.63349723815918 208 166 142
-0.8712330460548401 0.13887789845466614 8.644819259643555 117 122 102
-0.9332578182220459 -0.35908687114715576 9.071388244628906 174 132 107
-0.8976386785507202 0.11686988919973373 8.68662166595459 131 143 123
-0.9286636114120483 0.2685898244380951 8.969159126281738 132 142 141
-0.9275458455085754 0.27823391556739807 9.101778030395508 73 73 75
-0.847173810005188 -0.30180802941322327 8.673622131347656 183 146 128
-0.8686853647232056 -0.4806877076625824 9.153337478637695 191 159 134
-0.9363728761672974 0.12896385788917542 8.800880432128906 137 139 125
-0.7490444779396057 -0.6433330774307251 9.108562469482422 227 228 214
-0.6844913959503174 -0.6883979439735413 8.83875846862793 214 187 178
-0.8562232255935669 -0.48821598291397095 9.118298530578613 183 152 131
-0.8867278695106506 0.2623550295829773 9.251774787902832 67 66 62
-0.6912071704864502 -0.8208281993865967 9.337323188781738 65 74 79
-0.7456537485122681 -0.26641595363616943 8.470477104187012 185 153 130
-0.9338819980621338 0.2491113245487213 8.919527053833008 152 161 160
-0.2867307960987091 -0.4613408148288727 8.510494232177734 104 93 87
-0.11349177360534668 -0.7076733708381653 8.880313873291016 236 246 222
-0.5931946039199829 -0.7713506817817688 9.079200744628906 219 225 215
-0.5066973567008972 -0.818038284778595 8.91534423828125 136 133 124
-0.7347216606140137 -0.24448803067207336 8.465542793273926 123 105 93
-0.7752258777618408 0.5056156516075134 8.98676586151123 79 78 76
-0.5232903361320496 -0.8093454837799072 8.934059143066406 246 255 238
-0.8783041834831238 -0.47459784150123596 9.045252799987793 198 174 146
-0.05438484996557236 0.8474650979042053 8.860383033752441 170 232 255
-0.7579582333564758 -0.5799857974052429 9.252787590026855 160 169 138
-0.05438484996557236 0.8474650979042053 8.860383033752441 170 232 255
-0.5549771189689636 -0.797063410282135 9.00062084197998 234 236 223
-0.8625674843788147 -0.12976346909999847 8.611498832702637 150 125 103
-0.7962551712989807 -0.3077453076839447 8.528964042663574 190 160 134
-0.7960180640220642 0.1964583545923233 8.576798439025879 86 94 81
-0.7902836203575134 0.4832843840122223 9.135773658752441 64 63 59
-0.49539074301719666 -0.9577339291572571 9.200427055358887 117 121 122
-0.9521735906600952 0.005956191103905439 8.769851684570312 59 58 72
-0.8976386785507202 0.11686988919973373 8.68662166595459 131 143 123
-1.0117874145507812 0.2207379788160324 9.465295791625977 17 25 28
-0.6741344928741455 -0.694015383720398 9.207098960876465 153 156 135
-0.981734037399292 0.0850992351770401 9.07276725769043 100 116 116
-0.9324551224708557 0.17990005016326904 8.807929039001465 130 140 131
-0.8513081669807434 -0.3127090334892273 8.626696586608887 206 170 146
-0.9568145871162415 0.03489783778786659 8.893365859985352 162 173 165
-0.880919337272644 -0.3354712724685669 8.702247619628906 191 154 136
-0.6204107999801636 -0.7620416283607483 9.114755630493164 159 160 154
-0.8952155709266663 0.2823646664619446 8.84712028503418 129 132 123
-0.9324551224708557 0.17990005016326904 8.807929039001465 130 140 131
-0.8765922784805298 0.14281320571899414 8.675071716308594 153 168 161
-0.8082549571990967 0.1974264532327652 8.562980651855469 163 172 151
-0.9823054671287537 -0.16797934472560883 9.394323348999023 40 45 39
-0.25205695629119873 -0.3743760287761688 8.545948028564453 197 180 164
-0.9871513247489929 0.3064449429512024 9.424216270446777 55 52 61
-0.8192659616470337 -0.5442827939987183 9.323561668395996 72 69 62
-0.9776272773742676 -0.175936758518219 9.176631927490234 100 80 56
-0.882797122001648 0.11704128980636597 8.643087387084961 158 160 159
-0.8815416693687439 0.33694154024124146 9.118485450744629 57 57 57
-0.9104157090187073 0.3123871386051178 9.004484176635742 93 92 90
-0.7130213379859924 -0.6175206899642944 8.719969749450684 210 185 163
-0.7523439526557922 0.0975676104426384 8.476985931396484 167 170 161
-0.8547232151031494 -0.034644026309251785 8.571176528930664 128 102 87
-0.9538591504096985 0.07248646765947342 8.840497016906738 133 136 125
-0.9521735906600952 0.005956191103905439 8.769851684570312 59 58 72
-0.6568236351013184 -0.6979308724403381 8.775992393493652 211 205 189
-0.7826058864593506 0.14998294413089752 8.514603614807129 147 158 154
-0.6688252091407776 -0.7238807082176208 9.057374954223633 241 244 225
-0.6597878932952881 -0.4407215714454651 8.474387168884277 121 92 84
-0.7085351943969727 -0.23771032691001892 8.425095558166504 196 199 182
-0.8629439473152161 -0.15332220494747162 8.594930648803711 135 97 84
-0.8438950777053833 -0.21605423092842102 8.573266983032227 96 71 67
-0.7582880258560181 -0.23880913853645325 8.490571975708008 120 93 84
-0.8989427089691162 -0.5064626932144165 9.404630661010742 132 132 132
-0.8943315148353577 0.09115374833345413 8.662506103515625 120 122 109
-0.7232316136360168 -0.49794313311576843 8.582633018493652 185 151 126
-0.8770752549171448 -0.43362006545066833 8.864826202392578 145 108 92
-0.688201904296875 0.017374519258737564 8.40588092803955 140 121 107
-0.8230149149894714 0.423965722322464 9.119278907775879 75 78 71
-0.7276890277862549 -0.6578527688980103 9.012947082519531 97 88 91
-0.9612061977386475 0.08344843983650208 8.863785743713379 160 169 164
-0.9851637482643127 -0.031588274985551834 9.115384101867676 144 154 146
-0.8122543096542358 -0.35071542859077454 8.577461242675781 188 156 131
-0.7365987300872803 0.4140547513961792 8.672998428344727 116 125 120
-0.8976097106933594 -0.0989757627248764 8.672685623168945 145 122 104
-0.5903447866439819 -0.7775125503540039 9.004571914672852 203 210 202
-0.8044716119766235 -0.5208852291107178 8.746788024902344 190 145 126
-0.768505871295929 0.7066861987113953 9.308003425598145 35 34 29
-0.7673182487487793 0.5031152367591858 8.893025398254395 104 110 98
-0.6800095438957214 -0.693474531173706 8.913251876831055 132 125 106
-0.6611738801002502 -0.7131567001342773 8.848069190979004 144 130 117
-0.8438832759857178 -0.46487027406692505 9.346604347229004 62 61 56
-0.8500885963439941 0.4425213932991028 9.332274436950684 62 64 59
-0.7896500825881958 0.4724165201187134 8.902204513549805 80 91 77
-0.8042414784431458 0.46337443590164185 9.192588806152344 60 60 58
-0.8083712458610535 0.45720288157463074 9.294221878051758 24 25 20
-0.9265619516372681 0.2858749032020569 9.041078567504883 124 133 128
-0.7871081829071045 0.4919905662536621 9.052639961242676 66 56 54
-0.6342099905014038 -0.7365748882293701 9.148209571838379 127 123 120
-0.8529852628707886 0.35308128595352173 9.217687606811523 81 92 88
-0.6139003038406372 -0.724923312664032 8.818669319152832 118 111 101
-0.6934370398521423 -0.6983233690261841 9.077726364135742 234 240 226
-0.912226140499115 0.15048545598983765 9.372547149658203 32 36 37
-0.8862172961235046 -0.2831895351409912 8.664287567138672 167 121 97
-0.8629439473152161 -0.15332220494747162 8.594930648803711 135 97 84
-0.9838433265686035 -0.03205208480358124 9.188285827636719 90 94 97
-0.8477604985237122 -0.5153284668922424 9.205321311950684 176 150 135
-0.4692240059375763 0.923262357711792 9.188273429870605 56 62 60
-0.7796549797058105 0.2422817051410675 8.618399620056152 144 156 144
-0.6563854813575745 -0.739596426486969 9.036836624145508 141 138 119
0.4728254973888397 0.038890987634658813 8.60476303100586 123 98 76
-0.8697082996368408 0.3301801383495331 9.239883422851562 78 83 79
-0.9823451638221741 0.05735636129975319 9.11119270324707 90 107 114
-0.3417528569698334 0.9919635653495789 9.015742301940918 169 231 254
-0.47295600175857544 -0.837630569934845 8.94528579711914 131 121 119
-0.882797122001648 0.11704128980636597 8.643087387084961 158 160 159
-0.5301932692527771 -0.7988983988761902 9.103913307189941 126 128 125
-0.7936971783638 -0.1557675153017044 8.495905876159668 175 155 130
-0.644855260848999 -0.473621666431427 8.4855375289917 202 165 138
-0.926944375038147 0.08424653112888336 9.310272216796875 92 107 100
-0.626228392124176 -0.48015183210372925 8.466442108154297 195 168 138
-0.7741146087646484 -0.5550036430358887 9.288365364074707 140 133 117
-0.926944375038147 0.08424653112888336 9.310272216796875 92 107 100
-0.9851637482643127 -0.031588274985551834 9.115384101867676 144 154 146
-0.9756686687469482 0.1242779940366745 9.080183029174805 143 157 157
-0.887757420539856 0.2601340413093567 9.289444923400879 51 61 63
-0.7831680178642273 -0.6079131364822388 8.919785499572754 216 189 172
-0.5473817586898804 -0.8083224892616272 8.983614921569824 148 148 136
-0.5747215151786804 -0.7891101241111755 9.02432632446289 186 186 184
-0.8008882403373718 -0.5895085334777832 9.131536483764648 114 99 94
-0.6584867238998413 -0.2543586194515228 8.40082836151123 101 97 86
-0.4985923767089844 -0.8214930295944214 9.020613670349121 212 206 190
-0.8237737417221069 -0.2699558138847351 8.551965713500977 160 125 106
-0.48833373188972473 -0.8239482045173645 8.929752349853516 131 126 120
-0.19670431315898895 -0.80479896068573 9.016818046569824 140 127 121
-0.8976097106933594 -0.0989757627248764 8.672685623168945 145 122 104
-0.59620600938797 -0.7794461250305176 9.016509056091309 189 192 183
-0.7579750418663025 0.11066862940788269 8.639577865600586 137 159 172
-0.9413992166519165 0.2488093376159668 8.99376106262207 110 114 115
-0.6891533732414246 -0.3860173225402832 8.457307815551758 200 178 155
-0.8453737497329712 0.30611148476600647 8.728984832763672 155 163 150
-0.6742972135543823 -0.2781609296798706 8.40549373626709 177 156 135
-1.0060932636260986 0.2298295944929123 9.428044319152832 37 40 45
-0.8334845900535583 -0.0008446444990113378 8.53254508972168 130 111 81
-0.19670431315898895 -0.80479896068573 9.016818046569824 140 127 121
-0.7208278179168701 0.06104158237576485 8.449355125427246 108 82 69
-0.55377596616745 -0.7244058847427368 8.722694396972656 144 141 126
-0.9448496699333191 -0.3347446620464325 9.088942527770996 181 147 122
-0.9275970458984375 -0.13262110948562622 8.676797866821289 170 133 114
-0.754511296749115 -0.6212264895439148 9.05935001373291 195 168 147
-0.8667949438095093 -0.4885678291320801 8.897038459777832 214 182 159
-0.8981122374534607 0.2552027404308319 8.80335807800293 126 133 115
-0.5741969347000122 -0.31065231561660767 8.358163833618164 116 95 78
-0.5915056467056274 -0.291946142911911 8.358513832092285 183 179 150
-0.9510127902030945 -0.048467669636011124 9.254164695739746 111 127 114
-0.948563277721405 -0.16993865370750427 9.239707946777344 150 147 128
-0.9314963221549988 -0.20933426916599274 9.279425621032715 64 65 60
-0.9253725409507751 0.14955556392669678 9.209894180297852 61 65 66
-0.8761467337608337 0.25721436738967896 9.273009300231934 84 84 86
-0.9298403263092041 0.12017685174942017 9.295637130737305 75 75 77
-0.4633093774318695 -0.0007665820303373039 8.709150314331055 164 168 145
-0.9249351024627686 0.04038328304886818 9.287273406982422 105 116 112
-0.9335321187973022 -0.10473974794149399 9.307538986206055 103 102 97
-0.6746363043785095 -0.6965236067771912 9.075098991394043 234 237 220
-0.5250884890556335 -0.7700503468513489 9.067544937133789 217 220 209
-0.7712221145629883 -0.5906313061714172 8.919443130493164 210 186 152
-0.9461854696273804 0.10648524761199951 9.224894523620605 92 98 96
-0.6820046901702881 -0.7031916975975037 8.97849178314209 224 222 184
-0.7776247262954712 -0.5865857005119324 9.127634048461914 115 87 75
-0.9030777215957642 0.29594600200653076 9.132796287536621 37 41 40
-0.24281597137451172 -0.3252561688423157 8.526790618896484 143 106 79
-0.9108123183250427 -0.31411707401275635 9.247926712036133 159 122 93
-0.832648515701294 -0.30759939551353455 8.623614311218262 208 164 139
-0.8253499865531921 0.34133681654930115 9.23372745513916 75 76 71
-0.7587623596191406 -0.5912765264511108 9.152055740356445 202 171 153
-0.7867938280105591 -0.5462239384651184 9.252185821533203 182 165 149
-0.7776247262954712 -0.5865857005119324 9.127634048461914 115 87 75
-0.9541392922401428 -0.051038242876529694 9.25389289855957 119 120 112
-0.9451003670692444 0.06733109802007675 9.250018119812012 77 74 69
-0.8822652697563171 -0.37920695543289185 9.301799774169922 162 151 133
-0.9302325248718262 -0.07306613028049469 9.261978149414062 97 94 89
-0.9387538433074951 -0.06021936237812042 9.279932022094727 121 120 116
-0.9302325248718262 -0.07306613028049469 9.261978149414062 97 94 89
-0.9323445558547974 -0.02562638372182846 9.31229305267334 88 88 86
-0.49250611662864685 -0.7952306866645813 9.09874153137207 123 114 99
-0.931692361831665 -0.12847211956977844 9.332799911499023 124 125 120
-0.8905671238899231 0.2598617374897003 9.252618789672852 65 65 63
-0.9283003211021423 -0.06516146659851074 9.321892738342285 117 117 117
-0.9323445558547974 -0.02562638372182846 9.31229305267334 88 88 86
-0.746261477470398 -0.3632781505584717 8.542780876159668 192 156 130
-0.8472144603729248 0.30951136350631714 8.806380271911621 118 126 102
-0.8105142116546631 -0.545733630657196 9.16012191772461 199 164 132
-0.8334286212921143 -0.5047816038131714 9.147187232971191 199 160 131
-0.7228180170059204 -0.6631889343261719 8.979349136352539 139 136 131
-0.8117277026176453 -0.4999488294124603 8.804594993591309 232 186 162
-0.7420856952667236 -0.6083951592445374 9.063336372375488 213 181 142
-0.7025085687637329 -0.6676787734031677 8.902235984802246 149 136 127
-0.9380336403846741 -0.16830559074878693 9.235336303710938 172 171 150
-0.741178035736084 -0.6510635614395142 8.960112571716309 224 191 156
-0.9525415897369385 -0.005620881915092468 9.163116455078125 140 143 132
-0.6987267136573792 -0.6762697100639343 9.140006065368652 224 217 189
-0.9362636804580688 -0.1870918869972229 9.177164077758789 197 159 122
-0.687727153301239 -0.6773645877838135 8.930351257324219 220 186 158
-0.9264309406280518 -0.15688349306583405 9.274665832519531 121 120 115
-0.7881265878677368 -0.5847684144973755 8.970135688781738 213 182 151
-0.904977023601532 -0.18240982294082642 9.287129402160645 159 154 135
-0.7040244340896606 -0.6870923638343811 8.895437240600586 227 193 168
-0.8888587951660156 0.1726951152086258 9.25058364868164 120 117 110
-0.9015490412712097 0.20366217195987701 9.228020668029785 69 70 62
-0.9140103459358215 -0.006269754376262426 9.23285961151123 142 144 139
-0.9207752346992493 0.11279860883951187 9.21484088897705 117 122 115
-0.8903274536132812 3.914205444743857e-05 9.274019241333008 139 138 134
-0.9037792086601257 0.20624662935733795 9.147787094116211 55 61 61
-0.929412305355072 -0.20992499589920044 9.278229713439941 90 87 82
-0.8931743502616882 0.22733543813228607 8.927504539489746 92 94 93
-0.7706296443939209 -0.5799466967582703 9.099088668823242 207 166 134
-0.8815580010414124 0.12062610685825348 8.76151180267334 162 166 152
-0.9315323829650879 0.06916096061468124 9.191368103027344 86 92 82
-0.6888232231140137 -0.6603487133979797 8.929587364196777 148 136 122
-0.7744386196136475 -0.5949656367301941 9.158147811889648 209 183 156
-0.6897515058517456 -0.7037481069564819 8.982305526733398 226 224 186
-0.8998488783836365 -0.19401372969150543 8.725057601928711 190 148 124
-0.7944129109382629 -0.5379770398139954 8.957646369934082 222 187 159
-0.7917149066925049 -0.4149293899536133 8.65080738067627 218 179 148
-0.77692049741745 -0.4432683289051056 8.63630485534668 187 155 117
-0.838381290435791 0.3522096574306488 8.979700088500977 110 109 107
-0.818138062953949 0.38670769333839417 8.91314697265625 149 151 137
-0.9287538528442383 0.18997129797935486 8.969670295715332 163 174 168
-0.9251023530960083 0.16898596286773682 9.102033615112305 106 109 114
-0.8876000046730042 0.15988437831401825 9.195192337036133 80 85 89
-0.8545693755149841 -0.39006394147872925 8.786782264709473 131 113 103
-0.9300327301025391 0.008117901161313057 9.27818775177002 84 86 85
-0.7212815284729004 -0.6549541354179382 8.867669105529785 226 192 157
-0.8545693755149841 -0.39006394147872925 8.786782264709473 131 113 103
-0.8614486455917358 0.3255153000354767 8.961840629577637 154 153 135
-0.8894246220588684 -0.12267348915338516 8.66740894317627 187 140 110
-0.7584709525108337 -0.5810362696647644 9.178874015808105 186 177 160
-0.9335610270500183 0.0005747696850448847 9.191594123840332 141 142 136
-0.638311505317688 -0.741281270980835 9.083366394042969 185 195 184
-0.6752736568450928 -0.6965180039405823 8.921432495117188 185 168 142
-0.8801376223564148 0.25227996706962585 8.984845161437988 157 159 138
-0.6332124471664429 -0.6790328025817871 8.775321006774902 158 140 128
-0.5988057255744934 -0.725696325302124 8.814398765563965 181 169 147
-0.6428878903388977 -0.5694113373756409 8.630501747131348 171 155 142
-0.7460349202156067 -0.6487200260162354 9.15045166015625 211 196 163
