ply
format ascii 1.0
element vertex 699
property float x
property float y
property float z
property uchar red
property uchar green
property uchar blue
end_header
-1.1786160469055176 -1.1086399555206299 5.733255386352539 103 70 51
-2.091081380844116 -0.884960412979126 5.55610990524292 139 106 91
-1.3939472436904907 -1.0647836923599243 5.692392349243164 170 128 104
-1.5605475902557373 -1.031748652458191 5.661235809326172 118 85 69
-2.7838504314422607 -1.7809690237045288 4.7482476234436035 185 234 238
-2.1895158290863037 -1.8161323070526123 4.910331726074219 192 206 223
-0.7356547713279724 -2.011704206466675 5.195849895477295 184 198 181
-1.5605475902557373 -1.031748652458191 5.661235809326172 118 85 69
-2.260371208190918 -1.7786301374435425 4.916979789733887 98 5 13
-1.2800041437149048 -0.21951080858707428 5.4874420166015625 74 55 43
-1.0615928173065186 -0.48173221945762634 5.584270000457764 187 151 129
-1.680617332458496 -0.5039786696434021 5.50874662399292 128 101 82
-2.237858533859253 -1.8235962390899658 4.884097576141357 112 20 25
-2.7051122188568115 -1.8030985593795776 4.7458295822143555 175 221 227
-1.7146226167678833 -3.1703641414642334 6.123547077178955 14 30 45
-1.7085365056991577 -0.258057564496994 5.442629814147949 178 138 113
-0.8282671570777893 -0.9587821960449219 5.748667240142822 122 94 80
-2.7294161319732666 -1.790412425994873 4.750600814819336 176 218 232
-2.468642234802246 -0.9967913627624512 5.523184776306152 117 85 70
-1.154158115386963 -0.15877225995063782 5.489843845367432 165 132 113
-1.212892770767212 -0.9172728657722473 5.674557685852051 132 90 66
-2.189234495162964 -1.7443232536315918 4.9698286056518555 166 20 23
-0.6913204193115234 -0.9806538820266724 5.751320838928223 195 164 144
-0.8498427271842957 -0.6962025761604309 5.705860614776611 193 167 144
-1.975749135017395 -0.3060939610004425 5.420590877532959 79 59 51
-2.7838504314422607 -1.7809690237045288 4.7482476234436035 185 234 238
-1.4687057733535767 -1.8808791637420654 5.075680255889893 208 162 47
-2.090357780456543 -0.8014804124832153 5.5319132804870605 205 172 153
-2.731126308441162 -0.4781537353992462 5.355013847351074 184 148 124
-2.700725555419922 -0.4177330732345581 5.342105388641357 168 139 115
-0.9657493233680725 -0.5781909823417664 5.625842571258545 191 160 132
-1.639156699180603 -0.9287734627723694 5.623296737670898 90 58 43
-2.1710386276245117 -0.2554590404033661 5.374168395996094 132 97 78
-2.3554413318634033 -1.7882816791534424 4.881502628326416 115 20 28
-2.1977527141571045 -1.8156107664108276 4.904781341552734 87 5 6
-2.2315726280212402 -0.8651420474052429 5.523392200469971 100 78 65
-2.6780965328216553 -0.3719916343688965 5.334359645843506 131 98 79
-2.2902591228485107 -1.7855637073516846 4.903984069824219 105 21 28
-2.843160390853882 -0.6874761581420898 5.392035484313965 117 85 70
-1.6078842878341675 -0.08980852365493774 5.408230304718018 106 82 71
-2.928729295730591 -1.7789839506149292 4.710633277893066 0 173 67
-2.2617428302764893 -1.807068109512329 4.894247055053711 187 202 225
-0.6840929388999939 -1.9841021299362183 5.230057716369629 190 198 173
-2.1977527141571045 -1.8156107664108276 4.904781341552734 87 5 6
-2.829824209213257 -1.1636418104171753 5.428424835205078 93 65 51
-2.4327478408813477 -1.7474620342254639 4.8876752853393555 167 202 230
-2.097163438796997 -0.9914459586143494 5.582498073577881 191 151 122
-0.8931059241294861 -0.6575122475624084 5.648187160491943 104 78 63
-2.120760440826416 -0.8197087645530701 5.527738094329834 185 151 129
-0.9900965690612793 -0.8189587593078613 5.6764397621154785 193 166 145
-2.247385025024414 -1.8065615892410278 4.8954572677612305 104 16 20
-2.869190216064453 -1.781261920928955 4.734694480895996 13 157 80
-3.05472731590271 -0.6219560503959656 5.344292163848877 122 91 71
-0.6096674203872681 -0.18123246729373932 5.517187118530273 197 163 143
-0.6158613562583923 -0.5594870448112488 5.665448188781738 177 147 121
-0.5842761397361755 -0.625622570514679 5.685888767242432 138 109 94
-0.8649088144302368 -1.9757161140441895 5.186115741729736 3 15 4
-2.205810785293579 -1.8280127048492432 4.893542766571045 98 6 8
-1.6570683717727661 -0.9968068599700928 5.651099681854248 97 62 40
-3.0803685188293457 -0.47931036353111267 5.30640983581543 178 147 119
-0.8380004167556763 -0.44968181848526 5.595844745635986 180 144 120
-1.2103463411331177 -1.1770154237747192 5.745657444000244 39 25 16
-0.651308536529541 -1.985873818397522 5.236887454986572 6 17 6
-0.71197509765625 -0.9649108052253723 5.755414962768555 153 124 106
-1.989723563194275 -1.1271613836288452 5.623682498931885 164 128 102
-1.3724966049194336 -0.8764922022819519 5.656047821044922 172 130 105
-0.9708449244499207 -0.42888545989990234 5.576967716217041 72 53 49
-1.1277302503585815 -0.7758099436759949 5.654507637023926 207 175 154
-1.7828541994094849 -0.6653229594230652 5.540430068969727 172 144 123
-1.009091854095459 -1.9489943981170654 5.157979965209961 14 38 26
-0.7678375244140625 -1.955183506011963 5.22652530670166 190 205 177
-0.8934616446495056 -0.32678648829460144 5.56689453125 184 149 127
-1.984288215637207 -3.1121273040771484 6.063225746154785 95 128 147
-0.9870337247848511 -0.8774474263191223 5.702818870544434 175 144 126
-0.6699789762496948 -2.003507137298584 5.213142395019531 190 202 190
-2.192779541015625 -1.8118982315063477 4.916627407073975 110 17 20
-1.4471640586853027 -0.5081566572189331 5.5388875007629395 180 146 121
-1.6570683717727661 -0.9968068599700928 5.651099681854248 97 62 40
-2.329616069793701 -1.8007166385650635 4.87647008895874 114 28 37
-0.9266442060470581 -1.9911893606185913 5.159069538116455 216 236 227
-2.4327478408813477 -1.7474620342254639 4.8876752853393555 167 202 230
-2.205810785293579 -1.8280127048492432 4.893542766571045 98 6 8
-0.9735612869262695 -0.8612804412841797 5.70120906829834 111 87 69
-0.8380004167556763 -0.44968181848526 5.595844745635986 180 144 120
-1.5104228258132935 -1.85768723487854 5.079983234405518 47 14 3
-1.8623980283737183 -1.185524582862854 5.605974197387695 64 52 44
-0.6596052050590515 -1.9779759645462036 5.240163326263428 6 23 12
-0.4102184772491455 -0.24441666901111603 5.596590995788574 75 57 48
-2.693660259246826 -1.8146179914474487 4.7389726638793945 4 138 64
-1.9571936130523682 -0.17146523296833038 5.390238285064697 161 123 104
-0.9708449244499207 -0.42888545989990234 5.576967716217041 72 53 49
-1.823176383972168 -1.0231961011886597 5.621028423309326 133 91 68
-2.964505434036255 -1.7961053848266602 4.692331314086914 1 151 76
-0.9816626906394958 -0.5653045773506165 5.626881122589111 115 82 67
-2.1763453483581543 -1.818052887916565 4.908993721008301 105 19 20
-1.725186824798584 -0.7044879198074341 5.564986228942871 158 129 115
-1.5706374645233154 -0.5715541243553162 5.548730850219727 183 151 130
-0.6599238514900208 -2.020409345626831 5.208730220794678 184 199 183
-1.2633188962936401 -1.8822323083877563 5.132218837738037 1 140 50
-2.0203068256378174 -2.9704601764678955 6.003849029541016 62 84 98
-2.3395447731018066 -1.7541660070419312 4.914073467254639 109 16 22
-1.1403905153274536 -0.16852235794067383 5.4916462898254395 141 108 83
-2.939934253692627 -1.7880396842956543 4.710339069366455 3 161 70
-2.034891128540039 -3.1215202808380127 6.064190864562988 105 138 157
-1.5333352088928223 -1.8763108253479004 5.061121940612793 19 39 65
-2.329616069793701 -1.8007166385650635 4.87647008895874 114 28 37
-2.8022494316101074 -1.8024576902389526 4.721024036407471 5 152 70
-0.7271242737770081 -1.9984304904937744 5.208902835845947 180 197 172
-2.1384191513061523 -1.7950968742370605 4.944919109344482 162 19 23
-2.243626832962036 -0.8195601105690002 5.507501602172852 198 162 138
-2.4623143672943115 -0.3318867087364197 5.35707426071167 94 72 58
-0.9087483882904053 -1.9699190855026245 5.171657562255859 186 201 179
-0.957413375377655 -1.9479665756225586 5.172873497009277 182 197 169
-2.7046234607696533 -1.22492253780365 5.386416912078857 25 23 24
-1.7633787393569946 -0.22605621814727783 5.425307273864746 189 150 121
-3.284984827041626 -0.5625170469284058 5.291539192199707 130 99 80
-0.8409156203269958 -0.4319652020931244 5.610796928405762 140 108 91
-2.097733497619629 -0.9832329154014587 5.573474407196045 197 162 134
-2.7767670154571533 -1.787717342376709 4.745762825012207 1 156 75
-0.7039503455162048 -0.7929874062538147 5.707009315490723 85 64 47
-0.7505261301994324 -0.46001389622688293 5.610764980316162 99 72 52
-0.6234712600708008 -0.21432256698608398 5.57935094833374 92 76 67
-2.237858533859253 -1.8235962390899658 4.884097576141357 112 20 25
-0.8142061829566956 -0.1651001274585724 5.5201311111450195 58 46 44
-0.8414944410324097 -1.9534037113189697 5.195731163024902 187 199 187
-2.843597650527954 -1.7738221883773804 4.736271381378174 167 211 213
-2.7345590591430664 -1.0833017826080322 5.509573936462402 184 148 126
-2.195812225341797 -1.7837653160095215 4.935949325561523 75 2 4
-2.4496426582336426 -1.7517286539077759 4.881993770599365 127 30 33
-2.303493022918701 -1.7959935665130615 4.888446807861328 178 201 227
-1.7436749935150146 -0.6746280789375305 5.5381388664245605 182 152 128
-0.7540337443351746 -2.0280826091766357 5.176015853881836 7 32 21
-1.5902072191238403 -0.5825878977775574 5.551726341247559 179 152 129
-0.7415536046028137 -1.9563730955123901 5.234492301940918 188 202 180
-1.9571936130523682 -0.17146523296833038 5.390238285064697 161 123 104
-0.7786964774131775 -2.0041701793670654 5.183432579040527 14 42 29
-2.8693435192108154 -0.3471841812133789 5.305312633514404 192 156 130
-1.6319911479949951 -1.8716572523117065 5.036575794219971 21 6 13
-0.8723918199539185 -1.9620546102523804 5.188869953155518 180 195 174
-0.8255600929260254 -1.9993956089019775 5.175046920776367 6 28 15
-2.7475316524505615 -1.8044235706329346 4.738378047943115 2 174 73
-2.195596218109131 -1.823950171470642 4.895112037658691 170 212 237
-0.7415536046028137 -1.9563730955123901 5.234492301940918 188 202 180
-0.4612022936344147 -0.34179237484931946 5.571422100067139 134 103 84
-2.6017959117889404 -1.0968354940414429 5.550554275512695 158 122 100
-2.6655426025390625 -1.2548638582229614 5.3722453117370605 13 31 4
-0.5852238535881042 -0.6250560283660889 5.679807662963867 138 109 94
-1.2588955163955688 -0.32569706439971924 5.5221848487854 149 114 92
-1.5493574142456055 -0.3668385446071625 5.489772319793701 82 56 45
-2.284515619277954 -0.9109130501747131 5.529995918273926 196 160 128
-0.7533303499221802 -2.0153732299804688 5.1871113777160645 14 41 30
-0.7540337443351746 -2.0280826091766357 5.176015853881836 7 32 21
-1.0301018953323364 -1.9407217502593994 5.149541854858398 11 32 17
-0.8935117125511169 -1.9601354598999023 5.186305522918701 171 191 162
-2.3047971725463867 -1.8158177137374878 4.869055271148682 81 8 7
-2.107637405395508 -0.06931961327791214 5.338461875915527 183 149 128
-1.9424272775650024 -0.6233464479446411 5.502214431762695 183 154 135
-2.310377836227417 -1.8108669519424438 4.874570369720459 201 207 215
-0.3598724901676178 -1.094029188156128 5.8268351554870605 185 154 133
-3.383995532989502 -0.9191508889198303 5.372835636138916 189 153 127
-1.413679599761963 -0.30839601159095764 5.500952243804932 87 62 46
-2.235764265060425 -1.8142133951187134 4.8915300369262695 169 206 239
-0.8837065696716309 -1.9591165781021118 5.185544013977051 10 40 30
-2.1710386276245117 -0.2554590404033661 5.374168395996094 132 97 78
-1.5720847845077515 -3.2263057231903076 6.155178546905518 35 58 74
-0.5715150833129883 -0.40008068084716797 5.628718852996826 157 123 98
-0.8996487259864807 -1.9536828994750977 5.186685562133789 8 24 13
-3.6771647930145264 -0.6865903735160828 5.288356304168701 133 102 84
-2.0455901622772217 -0.07590632885694504 5.348289489746094 173 138 116
-3.1947286128997803 -0.5006497502326965 5.296180725097656 150 117 98
-2.2256195545196533 -1.7968599796295166 4.91168737411499 101 14 20
-0.8988620042800903 -0.4843159317970276 5.631380081176758 187 152 130
-1.1852073669433594 -0.17493730783462524 5.486544132232666 188 161 144
-1.2829723358154297 -0.6272236108779907 5.594139575958252 82 58 45
-1.849168300628662 -0.8224761486053467 5.572225570678711 186 150 126
-2.0345652103424072 -0.8605971932411194 5.552519798278809 152 119 100
-2.5723953247070312 -0.400169312953949 5.356712341308594 129 98 83
-1.000544548034668 -0.5117425322532654 5.648582458496094 92 64 50
-1.2544726133346558 -0.8575579524040222 5.650827884674072 172 133 104
-1.1923593282699585 -0.1710301786661148 5.490335464477539 47 29 24
-1.0347905158996582 -1.918466567993164 5.171891212463379 11 29 13
-2.1463139057159424 -0.4033205211162567 5.422458171844482 111 81 69
-2.9838995933532715 -0.6431070566177368 5.349888324737549 139 104 84
-2.2475311756134033 -1.8319743871688843 4.877753734588623 168 207 235
-0.941300630569458 -1.9620083570480347 5.1697096824646 202 212 180
-0.8142061829566956 -0.1651001274585724 5.5201311111450195 58 46 44
-2.226900577545166 -1.8263353109359741 4.886733531951904 118 27 32
-0.9980770349502563 -1.936416506767273 5.168864727020264 185 196 174
-0.4199567437171936 -0.8960649967193604 5.758528709411621 181 155 132
-2.2682745456695557 -1.7982174158096313 4.8972601890563965 113 24 29
-2.439819812774658 -1.081946849822998 5.550274848937988 155 117 98
-1.8683987855911255 -0.8327407836914062 5.570346355438232 172 137 115
-0.7619860768318176 -1.9610716104507446 5.224555492401123 5 20 5
-0.7539600729942322 -1.9601020812988281 5.2303009033203125 182 188 162
-0.5203564763069153 -1.0698513984680176 5.79203987121582 135 104 84
-1.3865535259246826 -0.28430384397506714 5.495274543762207 170 138 123
-2.157963752746582 -1.8227094411849976 4.917662620544434 114 20 24
-0.8131385445594788 -0.43440932035446167 5.613209247589111 168 132 110
-0.8094595670700073 -1.9452205896377563 5.221700668334961 0 15 1
-0.6675887107849121 -1.982401728630066 5.236434459686279 181 197 162
-2.226900577545166 -1.8263353109359741 4.886733531951904 118 27 32
-3.0461792945861816 -0.6850898265838623 5.362241268157959 147 116 95
-1.59004807472229 -0.9943448901176453 5.668953895568848 120 84 60
-1.022093415260315 -0.866567850112915 5.696091175079346 183 154 136
-1.1843611001968384 -0.44777053594589233 5.569603443145752 159 126 107
-0.7665333151817322 -1.947901964187622 5.234172821044922 183 194 156
-1.2188228368759155 -0.7726420164108276 5.648813247680664 164 130 103
-0.43987423181533813 -0.20225653052330017 5.583984851837158 166 129 110
-2.2655889987945557 -1.7520182132720947 4.9462738037109375 101 17 29
-0.6109066009521484 -0.3272947669029236 5.604175090789795 104 75 57
-0.8498427271842957 -0.6962025761604309 5.705860614776611 193 167 144
-3.659158945083618 -0.34118780493736267 5.197121620178223 164 127 101
-2.205099582672119 -1.796342134475708 4.922706604003906 87 8 11
-0.7746694087982178 -1.999803900718689 5.193233013153076 171 194 180
-1.7626197338104248 -0.8402774930000305 5.601371765136719 184 145 114
-2.3410391807556152 -1.7866005897521973 4.886076927185059 169 207 236
-1.6236681938171387 -1.0078189373016357 5.659073352813721 125 92 73
-3.1389505863189697 -0.7398172616958618 5.371517658233643 156 121 102
-1.8228470087051392 -3.0276129245758057 6.079923629760742 102 133 157
-2.1922831535339355 -0.7454517483711243 5.508420467376709 136 110 97
-1.4461941719055176 -1.055586576461792 5.681743144989014 117 79 56
-1.563443660736084 -0.4790060520172119 5.5245490074157715 115 86 68
-1.4274309873580933 -0.3339184522628784 5.499457359313965 150 115 94
-2.9148035049438477 -1.7701075077056885 4.730286598205566 173 223 222
-0.9733450412750244 -1.3001441955566406 5.679915904998779 32 39 26
-2.0266621112823486 -0.34222501516342163 5.415395736694336 127 95 80
-2.296241044998169 -1.8021310567855835 4.887612819671631 87 4 6
-3.21917724609375 -0.7806567549705505 5.3694167137146 148 111 92
-0.8875328302383423 -1.9151232242584229 5.216227054595947 182 193 168
-0.6620166897773743 -0.5656919479370117 5.656700134277344 162 129 110
-0.480622798204422 -0.4685870110988617 5.641864776611328 158 130 109
-1.0301018953323364 -1.9407217502593994 5.149541854858398 11 32 17
-2.272130012512207 -1.808591604232788 4.888433456420898 131 43 47
-2.1833581924438477 -1.8123712539672852 4.919836521148682 178 129 148
-1.2142763137817383 -0.3922198712825775 5.5374836921691895 168 134 114
-1.4459203481674194 -0.8920966386795044 5.640522003173828 138 100 77
-0.6098252534866333 -0.32547029852867126 5.5695719718933105 104 75 57
-0.6505568623542786 -2.019035577774048 5.212539196014404 28 51 35
-0.6889421939849854 -1.97895085811615 5.23554801940918 17 37 23
-1.9592522382736206 -2.9680304527282715 6.038630962371826 64 90 107
-1.7863808870315552 -1.81078040599823 5.050652027130127 168 31 39
-2.9140522480010986 -0.5708664059638977 5.351673126220703 185 155 131
-2.843597650527954 -1.7738221883773804 4.736271381378174 167 211 213
-0.6658613681793213 -1.1557782888412476 5.790836334228516 128 103 91
-2.312001943588257 -1.1261322498321533 5.5675482749938965 52 43 38
-2.892446756362915 -1.7759371995925903 4.723282337188721 5 147 76
-0.41972023248672485 -0.9151850938796997 5.780172824859619 173 138 119
-2.788512706756592 -0.4509522020816803 5.344282627105713 153 120 103
-1.3690359592437744 -0.41101405024528503 5.5207295417785645 163 132 114
-1.2545918226242065 -0.4108714461326599 5.539669990539551 200 174 151
-2.7903037071228027 -1.7913897037506104 4.745463848114014 1 121 42
-2.788512706756592 -0.4509522020816803 5.344282627105713 153 120 103
-1.3735407590866089 -0.44116777181625366 5.53637170791626 130 110 101
-0.6925643682479858 -0.876995325088501 5.731147766113281 174 146 132
-2.267258405685425 -1.8158957958221436 4.881129741668701 170 201 225
-0.8020379543304443 -0.41252562403678894 5.606657028198242 138 109 89
-1.098530650138855 -0.14378909766674042 5.5214128494262695 156 121 101
-1.2711397409439087 -0.011002439074218273 5.434861660003662 188 148 122
-1.125325083732605 -0.12512971460819244 5.476900577545166 42 28 16
-2.959130048751831 -1.801836371421814 4.688955783843994 175 235 221
-1.966752052307129 -0.3001468777656555 5.418238162994385 68 48 38
-1.8294835090637207 -1.0898478031158447 5.643838882446289 98 65 52
-1.5622997283935547 -0.7597653269767761 5.609310626983643 144 103 81
-0.4974999725818634 -0.16609059274196625 5.565154552459717 129 97 80
-1.4899816513061523 -0.025946516543626785 5.421748638153076 136 103 86
-2.2322182655334473 -1.8100848197937012 4.905306339263916 172 205 236
-0.7701071500778198 -2.007713556289673 5.188870429992676 7 25 9
-2.303493022918701 -1.7959935665130615 4.888446807861328 178 201 227
-2.310377836227417 -1.8108669519424438 4.874570369720459 201 207 215
-0.4923158288002014 -0.04852131009101868 5.549280643463135 161 124 105
-1.0701886415481567 -0.10765742510557175 5.512933731079102 47 28 21
-0.71539306640625 -2.0043115615844727 5.206830024719238 14 35 24
-2.3774120807647705 -0.9351428747177124 5.526020526885986 131 104 85
-1.1010406017303467 -0.4796070158481598 5.585109233856201 182 146 123
-2.4118854999542236 -0.2718600630760193 5.348801136016846 169 133 111
-0.9304410219192505 -2.0000174045562744 5.145354747772217 188 186 178
-1.1403905153274536 -0.16852235794067383 5.4916462898254395 141 108 83
-0.6202639937400818 -1.959576964378357 5.278737545013428 7 127 40
-2.223947763442993 -1.7939976453781128 4.919084548950195 63 7 11
-1.6841970682144165 -0.5581358671188354 5.528927326202393 181 150 130
-2.371499538421631 -1.0197434425354004 5.547171592712402 111 80 59
-2.7185232639312744 -1.7932279109954834 4.75495719909668 9 133 56
-2.5187628269195557 -0.26631447672843933 5.331338882446289 122 91 73
-2.8065567016601562 -1.1005580425262451 5.497625827789307 39 42 28
-0.39142370223999023 -0.57147216796875 5.652832984924316 173 143 117
-2.226280927658081 -0.9191839694976807 5.5392045974731445 195 160 130
-2.371499538421631 -1.0197434425354004 5.547171592712402 111 80 59
-1.6023058891296387 -0.9091353416442871 5.628774642944336 95 62 49
-2.2554290294647217 -0.7908682823181152 5.506091594696045 122 93 77
-0.5043627023696899 -0.9330775737762451 5.770132541656494 189 163 144
-2.4350006580352783 -0.05708145722746849 5.286584377288818 214 184 158
-1.1787863969802856 -0.9006321430206299 5.691898822784424 117 79 55
-1.0582524538040161 -0.8285480737686157 5.684293270111084 106 83 70
-1.9794310331344604 -0.04802045226097107 5.352749824523926 120 93 81
-1.1592220067977905 -0.6860281825065613 5.630057334899902 206 170 144
-0.7271242737770081 -1.9984304904937744 5.208902835845947 180 197 172
-1.513268232345581 -0.7314218282699585 5.595022678375244 138 94 69
-0.7473688721656799 -1.1596401929855347 5.8149285316467285 151 122 108
-1.2142763137817383 -0.3922198712825775 5.5374836921691895 168 134 114
-2.8242976665496826 -1.1899738311767578 5.389074325561523 37 50 40
-2.3943583965301514 -1.0324969291687012 5.549068450927734 108 74 55
-0.6757510304450989 -1.988001823425293 5.228702068328857 18 34 10
-2.2612619400024414 -1.8241019248962402 4.87556266784668 117 25 31
-1.8829244375228882 -0.03577780723571777 5.355953693389893 195 163 139
-2.9528579711914062 -1.7961006164550781 4.6935858726501465 173 223 219
-2.829824209213257 -1.1636418104171753 5.428424835205078 93 65 51
-0.9625005125999451 -0.07307812571525574 5.492534637451172 199 167 146
-0.3018594980239868 -0.7961267232894897 5.729991912841797 136 109 95
-0.9886634349822998 -1.9495095014572144 5.162307262420654 22 43 29
-1.3244935274124146 -0.6667465567588806 5.615109920501709 192 151 121
-1.8086156845092773 -0.26140621304512024 5.429546356201172 147 102 76
-0.9471706748008728 -1.940436601638794 5.189555644989014 209 229 217
-2.9944891929626465 -1.783551573753357 4.691825866699219 180 215 231
-1.6346162557601929 -0.732542872428894 5.58837890625 133 98 80
-1.240525484085083 -0.8456095457077026 5.661419868469238 191 151 125
-1.4469095468521118 -3.2290713787078857 6.165123462677002 102 139 157
-0.4902460277080536 -0.2758656442165375 5.596595287322998 105 76 62
-2.066362142562866 -3.05230712890625 6.060352802276611 101 128 147
-1.673661470413208 -0.9776462316513062 5.632155895233154 168 127 99
-1.0463658571243286 -0.4561295509338379 5.57731294631958 174 146 124
-2.1492316722869873 -1.824583649635315 4.916211128234863 119 25 28
-1.9261349439620972 -0.6540752649307251 5.517204284667969 141 113 91
-1.4540696144104004 -0.4311571717262268 5.525489807128906 166 132 116
-2.314077138900757 -1.0679576396942139 5.57373046875 104 69 49
-1.5398216247558594 -0.5948584675788879 5.55558967590332 88 63 51
-1.2388473749160767 -0.21889843046665192 5.489800453186035 154 120 104
-1.7830700874328613 -1.0110430717468262 5.635097980499268 165 123 99
-0.5212423801422119 -0.23403918743133545 5.579778671264648 155 120 100
-2.6971230506896973 -0.44387286901474 5.352371692657471 192 158 133
-2.619133949279785 -0.4018443822860718 5.350912094116211 128 99 83
-1.3244935274124146 -0.6667465567588806 5.615109920501709 192 151 121
-3.4633522033691406 -0.41022711992263794 5.235774993896484 145 112 93
-0.7231466770172119 -1.9572819471359253 5.241428852081299 15 36 20
-0.6665332913398743 -0.23428423702716827 5.571784973144531 66 49 41
-2.7838973999023438 -1.719972014427185 4.81541633605957 11 89 17
-1.575718879699707 -0.9246310591697693 5.634300231933594 177 135 110
-2.1035871505737305 -0.36675697565078735 5.418621063232422 96 68 56
-2.1291472911834717 -1.82230806350708 4.92293643951416 85 4 6
-1.505573034286499 -0.9501761794090271 5.652810096740723 118 83 64
-2.2257649898529053 -0.14715826511383057 5.33860969543457 162 126 107
-2.2538137435913086 -0.96538245677948 5.541362762451172 136 101 81
-2.256929874420166 -0.9954510927200317 5.55849027633667 187 146 124
-0.6888274550437927 -1.1359772682189941 5.796267509460449 151 118 99
-2.174447774887085 -0.22063317894935608 5.3567070960998535 164 127 100
-0.6580387949943542 -1.985544204711914 5.233510971069336 9 28 9
-2.227735757827759 -1.7844834327697754 4.925352096557617 113 17 23
-1.713332176208496 -0.9678031206130981 5.6278252601623535 111 76 55
-1.3058069944381714 -0.2248368114233017 5.492378234863281 139 106 87
-2.058706521987915 -1.1606266498565674 5.596353530883789 114 137 83
-2.6957437992095947 -0.435741126537323 5.349121570587158 142 112 88
-0.6889421939849854 -1.97895085811615 5.23554801940918 17 37 23
-2.845813274383545 -1.166034460067749 5.4009552001953125 206 130 103
-0.4836435616016388 -0.07958114892244339 5.5528483390808105 80 51 40
-2.986708879470825 -1.7901562452316284 4.690685272216797 1 150 73
-1.4570529460906982 -0.7055252194404602 5.597924709320068 127 84 67
-0.9087483882904053 -1.9699190855026245 5.171657562255859 186 201 179
-0.9156935214996338 -2.0254838466644287 5.120168209075928 181 182 179
-2.147594451904297 -1.821787714958191 4.917811870574951 102 11 17
-0.8875328302383423 -1.9151232242584229 5.216227054595947 182 193 168
-0.696563184261322 -0.29340294003486633 5.561797142028809 165 135 111
-0.8683647513389587 -0.46918293833732605 5.6302571296691895 171 134 108
-2.200153112411499 -1.8050655126571655 4.919459819793701 164 201 225
-1.208130121231079 -0.8271015286445618 5.658370494842529 182 146 120
-0.3704005777835846 -0.43960121273994446 5.660690784454346 72 50 39
-0.8489855527877808 -1.0192608833312988 5.750153064727783 106 89 78
-1.4540696144104004 -0.4311571717262268 5.525489807128906 166 132 116
-3.1243629455566406 -0.2707928419113159 5.234871864318848 154 122 102
-0.7294605374336243 -1.9614348411560059 5.233859062194824 180 195 161
-2.878767251968384 -1.77631413936615 4.726260185241699 180 221 231
-2.090357780456543 -0.8014804124832153 5.5319132804870605 205 172 153
-2.6957437992095947 -0.435741126537323 5.349121570587158 142 112 88
-2.2574992179870605 -1.814120888710022 4.8903422355651855 102 21 23
-3.0853254795074463 -0.4407109320163727 5.294569969177246 110 78 59
-1.7863808870315552 -1.81078040599823 5.050652027130127 168 31 39
-1.6162267923355103 -0.8475214242935181 5.617153644561768 138 100 77
-1.2382363080978394 -0.49321213364601135 5.563578128814697 73 46 29
-0.5820229649543762 -0.1847222000360489 5.575427055358887 148 118 93
-1.8991292715072632 -0.2576373219490051 5.418394565582275 91 64 57
-0.5536026954650879 -0.21317623555660248 5.579998970031738 162 128 103
-1.3263928890228271 -0.3587062358856201 5.521717548370361 75 47 35
-2.704049587249756 -1.803754448890686 4.746885776519775 172 220 230
-1.2800794839859009 -0.016084842383861542 5.4356608390808105 189 151 130
-2.0480074882507324 -1.1703400611877441 5.587241172790527 63 54 48
-2.679753541946411 -1.817366123199463 4.744538307189941 175 221 234
-0.7326251864433289 -1.9526567459106445 5.2378692626953125 1 13 1
-0.6762944459915161 -1.9751231670379639 5.240423679351807 19 29 14
-2.614536762237549 -0.3318922817707062 5.337256908416748 125 92 73
-0.7884073853492737 -0.7350425124168396 5.721546649932861 168 138 117
-0.9870418310165405 -0.6492642164230347 5.63974666595459 208 180 159
-1.2534840106964111 -0.8511202335357666 5.653351783752441 189 153 125
-1.9188146591186523 -0.0737270638346672 5.362781047821045 70 46 33
-1.3735407590866089 -0.44116777181625366 5.53637170791626 130 110 101
-2.2989420890808105 -1.7855842113494873 4.899527549743652 199 202 223
-1.1144980192184448 -0.7639673948287964 5.649690628051758 180 152 130
-0.6461675763130188 -1.9904130697250366 5.239375591278076 23 37 23
-0.6254072785377502 -0.5712074041366577 5.655344009399414 71 49 35
-1.1481214761734009 -0.8931224942207336 5.675047874450684 196 161 139
-1.3479578495025635 -3.096773386001587 6.151059150695801 16 30 41
-1.4633690118789673 -0.335873544216156 5.49742317199707 73 41 30
-0.897927463054657 -0.38449418544769287 5.598140239715576 176 145 124
-1.8949724435806274 -1.1345404386520386 5.6469221115112305 135 100 78
-0.2153262346982956 -0.8330168724060059 5.7648749351501465 162 130 109
-2.9359796047210693 -0.39545926451683044 5.307212829589844 197 161 137
-0.4836435616016388 -0.07958114892244339 5.5528483390808105 80 51 40
-2.728464365005493 -0.350174218416214 5.329651355743408 183 149 122
-1.914118766784668 -0.056473586708307266 5.351415157318115 176 138 114
-1.1133366823196411 -0.8904180526733398 5.690279960632324 183 147 123
-0.7392407655715942 -1.9666980504989624 5.225359916687012 191 210 169
-2.1284658908843994 -1.8285859823226929 4.920413970947266 184 200 226
-0.8034395575523376 -0.9744179248809814 5.7392802238464355 198 171 152
-2.702697277069092 -0.2315158098936081 5.292993068695068 189 155 130
-2.085649251937866 -0.27625319361686707 5.393469333648682 195 156 129
-1.5679463148117065 -0.49607864022254944 5.527405261993408 176 144 123
-0.8005824685096741 -2.0074753761291504 5.177423477172852 23 46 28
-2.3040871620178223 -1.8022774457931519 4.882458686828613 234 222 238
-1.0176458358764648 -1.910381555557251 5.180833339691162 5 31 18
-3.6041784286499023 -0.23352761566638947 5.175589561462402 119 87 68
-0.3184926509857178 -0.1442955881357193 5.587045669555664 72 53 41
-1.4632594585418701 -0.32904624938964844 5.486560344696045 187 151 130
-0.9219850301742554 -1.978995680809021 5.16671085357666 216 230 206
-2.1373558044433594 -0.8297017216682434 5.528280735015869 190 155 135
-2.3368239402770996 -1.0007270574569702 5.555849075317383 131 99 78
-0.8214678168296814 -0.7513629198074341 5.719279766082764 181 148 129
-0.6674718260765076 -0.2162833958864212 5.567086219787598 159 127 104
-0.884545087814331 -0.7209046483039856 5.660437107086182 195 167 145
-3.5658295154571533 -0.2570672035217285 5.187010765075684 192 165 139
-0.5220343470573425 -3.8468878269195557 7.7021989822387695 36 57 64
-2.2949397563934326 -0.21852880716323853 5.349891185760498 98 66 47
-3.0114681720733643 -1.7753374576568604 4.690486907958984 166 217 212
-2.372344493865967 -1.7757117748260498 4.881003379821777 119 30 35
-0.6441885828971863 -1.998334527015686 5.235013008117676 29 46 29
-0.39533042907714844 -1.0707807540893555 5.79859733581543 150 114 98
-0.9368365406990051 -1.9561182260513306 5.176138401031494 177 203 165
-2.1310293674468994 -0.8160051107406616 5.529898166656494 98 76 63
-1.8591352701187134 -1.1474019289016724 5.641244888305664 41 35 32
-0.7179846167564392 -1.9789149761199951 5.2241644859313965 3 16 2
-2.3175792694091797 -1.8065372705459595 4.872547626495361 103 18 17
-2.223947763442993 -1.7939976453781128 4.919084548950195 63 7 11
-0.6910704374313354 -2.0460190773010254 5.185003757476807 182 196 169
-0.6365230679512024 -1.9914997816085815 5.2386932373046875 184 195 171
-1.4313371181488037 -0.2745516896247864 5.488089561462402 170 138 117
-0.9368365406990051 -1.9561182260513306 5.176138401031494 177 203 165
-0.715726912021637 -0.14115960896015167 5.5412397384643555 66 43 37
-0.6786894798278809 -0.7926750183105469 5.708788871765137 184 152 131
-0.9969304800033569 -1.9244968891143799 5.177783012390137 189 205 188
-2.4964210987091064 -0.34707871079444885 5.345559120178223 133 100 81
-0.7887707948684692 -0.8735775947570801 5.710402488708496 126 102 92
-0.7567236423492432 -0.18144507706165314 5.526473522186279 146 111 92
-0.7678375244140625 -1.955183506011963 5.22652530670166 190 205 177
-0.5811389088630676 -0.9913985133171082 5.77957820892334 155 124 106
-2.423665761947632 -0.22788269817829132 5.333388328552246 198 166 142
-0.9213303327560425 -0.024328703060746193 5.482269763946533 50 24 10
-1.9450162649154663 -0.2077517956495285 5.395349502563477 96 64 41
-3.05472731590271 -0.6219560503959656 5.344292163848877 122 91 71
-1.941643476486206 -0.13212119042873383 5.374631404876709 161 126 104
-1.6025513410568237 -0.07983957231044769 5.4100422859191895 62 41 31
-0.3865470290184021 -0.8729969263076782 5.7619099617004395 124 94 83
-1.745314121246338 -0.7313711047172546 5.565446853637695 75 59 50
-1.4397978782653809 -0.05666143819689751 5.425498008728027 130 92 71
-2.2902591228485107 -1.7855637073516846 4.903984069824219 105 21 28
-2.951467275619507 -0.9364179968833923 5.437200546264648 165 123 99
-0.8971178531646729 -1.9448356628417969 5.190150737762451 6 32 23
-0.8693654537200928 -0.11456265300512314 5.522977352142334 167 135 114
-0.8255600929260254 -1.9993956089019775 5.175046920776367 6 28 15
-2.4729790687561035 -0.08454399555921555 5.2875213623046875 157 121 99
-0.7581202983856201 -0.9778199791908264 5.7300567626953125 156 124 110
-2.4430391788482666 -1.1109793186187744 5.567769527435303 157 117 91
-0.8175582885742188 -1.9347578287124634 5.223132133483887 1 18 3
-2.323312997817993 -0.24460697174072266 5.360445976257324 158 125 106
-0.8701819181442261 -0.396735817193985 5.607452869415283 167 131 105
-0.8082943558692932 -0.4859675467014313 5.625268459320068 63 44 38
-2.427821636199951 -1.7612740993499756 4.875401020050049 119 23 27
-2.1405677795410156 -1.8260648250579834 4.915496349334717 214 199 219
-0.8034395575523376 -0.9744179248809814 5.7392802238464355 198 171 152
-2.2895843982696533 -1.8333735466003418 4.859436511993408 162 36 38
-1.4513922929763794 -0.9624882340431213 5.658111095428467 111 82 68
-1.6852226257324219 -0.24820949137210846 5.454669952392578 161 124 105
-2.693660259246826 -1.8146179914474487 4.7389726638793945 4 138 64
-0.9977944493293762 -1.9607516527175903 5.150583744049072 185 197 183
-2.200153112411499 -1.8050655126571655 4.919459819793701 164 201 225
-1.8877604007720947 -0.031912196427583694 5.3578009605407715 80 51 34
-0.7507426142692566 -0.33716171979904175 5.58365535736084 164 127 105
-0.6572693586349487 -0.6836689114570618 5.692254066467285 177 145 124
-0.9969304800033569 -1.9244968891143799 5.177783012390137 189 205 188
-0.7106368541717529 -0.12942080199718475 5.503053188323975 131 102 89
-1.1740748882293701 -0.9066737294197083 5.687313079833984 180 138 113
-1.8104454278945923 -0.3484187424182892 5.4552788734436035 194 154 128
-1.6056143045425415 -0.050074461847543716 5.4069952964782715 95 59 43
-2.951467275619507 -0.9364179968833923 5.437200546264648 165 123 99
-1.1456173658370972 -0.3626740276813507 5.538677215576172 81 58 49
-2.2676143646240234 -0.2577543556690216 5.357148170471191 184 147 121
-1.2247744798660278 -0.25115835666656494 5.51297664642334 85 58 45
-1.7675483226776123 -0.21577346324920654 5.430521488189697 133 92 70
-1.4087649583816528 -0.26608461141586304 5.478332042694092 164 129 109
-2.098923921585083 -0.040439411997795105 5.325332164764404 165 130 108
-0.7358649373054504 -2.009345054626465 5.190920352935791 186 197 181
-3.515744209289551 -0.7125958204269409 5.302295207977295 98 65 46
-3.091986894607544 -0.17044171690940857 5.223701477050781 172 136 112
-2.3769302368164062 -1.7784723043441772 4.884540557861328 75 6 9
-2.09080171585083 -0.20487959682941437 5.381303787231445 84 56 43
-2.3116159439086914 -0.2844516932964325 5.362916469573975 197 162 134
-2.4624483585357666 -0.2196880578994751 5.324526786804199 134 98 76
-0.7372723817825317 -1.9966098070144653 5.206966876983643 14 38 31
-1.8106765747070312 -0.5529998540878296 5.50537633895874 188 159 141
-2.8421590328216553 -0.564841091632843 5.360696792602539 126 91 71
-2.158210515975952 -1.8235315084457397 4.910624027252197 65 1 1
-2.1247715950012207 -0.372088223695755 5.4078288078308105 133 99 87
-2.2820558547973633 -1.8204373121261597 4.878105163574219 87 25 32
-2.6279330253601074 -0.46732014417648315 5.3676533699035645 194 167 138
-2.986708879470825 -1.7901562452316284 4.690685272216797 1 150 73
-2.9148035049438477 -1.7701075077056885 4.730286598205566 173 223 222
-2.5874507427215576 -0.43090274930000305 5.358501434326172 187 153 125
-1.7244924306869507 -0.9614866375923157 5.623775005340576 193 149 122
-1.1637259721755981 -0.5699518322944641 5.594230651855469 98 69 60
-2.146730422973633 -0.711871862411499 5.500335216522217 112 89 79
-3.280726194381714 -0.4406251609325409 5.258267879486084 111 82 68
-1.7388801574707031 -1.170754313468933 5.6404876708984375 103 119 82
-0.6285971999168396 -0.5779678821563721 5.652623653411865 168 139 121
-0.804002046585083 -1.9432973861694336 5.225184440612793 173 189 154
-3.5196499824523926 -0.40777385234832764 5.2288689613342285 213 191 177
-0.652198076248169 -1.9923288822174072 5.232697010040283 189 204 174
-0.5119166374206543 -0.16180084645748138 5.500050067901611 59 46 40
-2.7476913928985596 -0.24080173671245575 5.290151119232178 93 70 54
-0.5821753740310669 -0.6527761220932007 5.678623676300049 186 155 134
-1.5251086950302124 -0.23178982734680176 5.465421676635742 127 86 64
-1.3960585594177246 -0.465437114238739 5.551339626312256 156 123 106
-0.7281315326690674 -0.14720407128334045 5.54425048828125 34 14 6
-1.2103285789489746 -0.09849541634321213 5.467761516571045 73 38 24
-1.6500364542007446 -0.4333655536174774 5.494658946990967 167 135 114
-0.13488735258579254 -1.0139904022216797 5.810727119445801 188 158 134
-0.7830728888511658 -1.9906442165374756 5.196384906768799 22 47 37
-2.2148523330688477 -1.801863193511963 4.917073726654053 88 2 3
-1.286594033241272 -3.0369067192077637 6.146515846252441 95 131 150
-3.3108177185058594 -0.3312171995639801 5.233706951141357 188 156 145
-0.6089445948600769 -0.7548937201499939 5.721480369567871 138 109 93
-2.292038917541504 -0.2848937511444092 5.370431423187256 191 154 125
-0.8005824685096741 -2.0074753761291504 5.177423477172852 23 46 28
-2.8302578926086426 -0.1468716263771057 5.248173236846924 111 93 86
-0.7130624055862427 -1.9630154371261597 5.235341548919678 182 196 171
-1.1177265644073486 -0.08359227329492569 5.473637580871582 123 85 64
-2.158210515975952 -1.8235315084457397 4.910624027252197 65 1 1
-1.48237943649292 -1.2107723951339722 5.464759826660156 37 43 62
-2.4745519161224365 -1.1661369800567627 5.4942851066589355 98 42 13
-0.9076715707778931 -0.2345491200685501 5.54451847076416 83 57 44
-2.343022584915161 -1.1627055406570435 5.533408164978027 154 93 65
-3.4271950721740723 -0.1305004358291626 5.175415515899658 134 103 87
-1.9235303401947021 -0.04928894340991974 5.363741397857666 139 102 76
-1.8476418256759644 -0.27716174721717834 5.429525375366211 204 167 141
-2.5532748699188232 -0.38115614652633667 5.355311870574951 100 73 56
-2.119192361831665 -0.8090801239013672 5.533837795257568 105 83 70
-3.5229434967041016 -0.16162502765655518 5.17161226272583 202 170 149
-1.1756067276000977 -0.23091228306293488 5.5103936195373535 188 157 139
-1.8163135051727295 -0.8762234449386597 5.592682361602783 107 71 49
-1.0347905158996582 -1.918466567993164 5.171891212463379 11 29 13
-1.9757508039474487 -1.1729004383087158 5.602730751037598 130 145 108
-2.0052120685577393 -0.9637656211853027 5.585633277893066 149 104 77
-3.734041452407837 -0.35347744822502136 5.182584285736084 81 53 38
-0.728811502456665 -0.2858065962791443 5.55771017074585 117 82 63
-2.4332969188690186 -0.07570493966341019 5.298929691314697 109 77 64
-1.1097790002822876 -0.715480387210846 5.648586750030518 187 155 134
-3.6785807609558105 -0.7800582051277161 5.3014960289001465 139 99 74
-1.3007147312164307 -0.8283615112304688 5.645073413848877 146 110 87
-1.513320803642273 -0.8948776125907898 5.6327900886535645 187 145 120
-2.1193900108337402 -0.3866375982761383 5.42397403717041 104 76 62
-1.107566475868225 -0.8520066142082214 5.676424026489258 121 94 75
-1.2082856893539429 -0.8533347249031067 5.664059638977051 118 81 60
-2.806182384490967 -0.3031141757965088 5.298495292663574 164 133 114
-1.9450162649154663 -0.2077517956495285 5.395349502563477 96 64 41
-1.0060265064239502 -1.9378252029418945 5.162496089935303 12 40 29
-0.6505568623542786 -2.019035577774048 5.212539196014404 28 51 35
-0.678344190120697 -0.8344365358352661 5.7481279373168945 122 93 79
-2.2935755252838135 -1.8235268592834473 4.872218608856201 170 210 239
-1.2890183925628662 -0.170136958360672 5.475254058837891 173 138 116
-2.7375168800354004 -0.5241336226463318 5.361409664154053 169 140 116
-1.4114885330200195 -3.169361114501953 6.155014514923096 44 70 87
-2.7888495922088623 -1.7602324485778809 4.772420406341553 94 232 167
-1.0199410915374756 -1.9344209432601929 5.163812160491943 184 195 181
-1.8822602033615112 -1.1724950075149536 5.609206676483154 58 50 47
-1.82761812210083 -3.086617946624756 6.08196496963501 36 67 86
-0.7247634530067444 -0.6386985778808594 5.661554336547852 125 90 74
-0.4693605899810791 -0.7863256335258484 5.730247497558594 178 150 129
-1.5388737916946411 -0.24692536890506744 5.461662769317627 184 143 123
-0.710256814956665 -0.5916266441345215 5.67001485824585 157 130 107
-2.8180201053619385 -1.233174443244934 5.3337836265563965 220 189 169
-0.7817985415458679 -2.01485013961792 5.17648983001709 19 39 26
-0.7234455943107605 -0.13610924780368805 5.530438423156738 145 115 98
-1.696682333946228 -0.5567601919174194 5.514219284057617 101 79 66
-1.6516937017440796 -0.04136980324983597 5.396111488342285 171 130 108
-2.8233237266540527 -1.80992591381073 4.718461990356445 165 216 212
-0.7358649373054504 -2.009345054626465 5.190920352935791 186 197 181
-2.288724660873413 -1.8301877975463867 4.869023323059082 197 198 225
-1.9235303401947021 -0.04928894340991974 5.363741397857666 139 102 76
-1.4257758855819702 -0.047032736241817474 5.425884246826172 83 40 21
-1.6902273893356323 -0.16151085495948792 5.406284809112549 166 132 107
-0.3738911747932434 -0.66447514295578 5.684419631958008 208 177 156
-1.9762617349624634 -0.8723920583724976 5.563931941986084 200 164 142
-2.191932439804077 -0.04984536021947861 5.317491054534912 103 72 57
-0.6847692728042603 -2.0416669845581055 5.186861515045166 14 33 18
-0.41260871291160583 -0.27530500292778015 5.623156547546387 105 75 65
-2.1979873180389404 -1.7957159280776978 4.928045272827148 184 199 224
-3.6471188068389893 -0.3273066282272339 5.189533710479736 220 209 196
-3.188713312149048 -0.11452087759971619 5.202414512634277 213 194 175
-3.062354564666748 -0.2565576732158661 5.248790264129639 132 95 79
-2.308494806289673 -1.7991937398910522 4.88709831237793 54 5 18
-2.195596218109131 -1.823950171470642 4.895112037658691 170 212 237
-1.8462246656417847 -0.5673520565032959 5.506718158721924 193 162 144
-1.233530879020691 -0.10920480638742447 5.480626583099365 102 65 44
-2.2513864040374756 -1.7674744129180908 4.931005477905273 98 4 12
-0.9173591136932373 -0.043461013585329056 5.489833831787109 49 26 15
-3.169701337814331 -0.14506228268146515 5.207342147827148 183 151 130
-2.3196909427642822 -0.23535244166851044 5.343445777893066 137 101 84
-0.6710419654846191 -0.228020578622818 5.571226596832275 160 132 112
-1.8107939958572388 -2.985949993133545 6.059412479400635 20 34 47
-1.0160229206085205 -1.941568374633789 5.161895751953125 186 200 189
-1.5318132638931274 -0.3567090928554535 5.49090576171875 70 49 40
-0.854917585849762 -0.7410159707069397 5.720938205718994 159 130 114
-2.1121537685394287 -0.34571704268455505 5.406440258026123 159 122 104
-3.169701337814331 -0.14506228268146515 5.207342147827148 183 151 130
-1.477137804031372 -0.3796932101249695 5.51042366027832 128 96 81
-0.49555936455726624 -1.1543338298797607 5.803544044494629 136 101 82
-1.442057728767395 -0.4597929120063782 5.530623435974121 92 68 57
-2.1455283164978027 -0.8476142287254333 5.535576820373535 141 104 85
-0.6772635579109192 -1.9810199737548828 5.234255790710449 26 43 23
-3.4113268852233887 -0.09246072173118591 5.17484188079834 202 174 153
-0.8031927347183228 -1.9866992235183716 5.195493698120117 16 39 25
-0.7372723817825317 -1.9966098070144653 5.206966876983643 14 38 31
-2.4363768100738525 -0.43184465169906616 5.383899688720703 124 92 77
-2.720949649810791 -0.28695183992385864 5.306803226470947 182 146 124
-0.36642199754714966 -0.8938236236572266 5.765539169311523 197 174 153
-1.459022879600525 -0.4394122064113617 5.522911071777344 117 88 72
-1.0391771793365479 -3.2007877826690674 6.212747573852539 122 148 163
-1.1457023620605469 -0.4088013470172882 5.561517238616943 124 91 74
-1.8505146503448486 -1.1686221361160278 5.6166229248046875 52 55 44
-2.256929874420166 -0.9954510927200317 5.55849027633667 187 146 124
-0.4592303931713104 -0.5244084000587463 5.674407005310059 186 155 137
-1.680617332458496 -0.5039786696434021 5.50874662399292 128 101 82
-0.8135116696357727 -1.9929333925247192 5.180630207061768 2 12 3
-2.4220492839813232 -0.3197525441646576 5.361543655395508 185 150 128
-2.172774076461792 -0.41910111904144287 5.423060894012451 108 77 59
-2.0879409313201904 -0.26414012908935547 5.390215873718262 201 165 146
-2.1687164306640625 -0.30576494336128235 5.39491081237793 130 92 73
-2.1873109340667725 -0.4809616804122925 5.437094211578369 166 131 103
-1.1986682415008545 -0.7663917541503906 5.638521671295166 173 137 115
-2.3040871620178223 -1.8022774457931519 4.882458686828613 234 222 238
-1.8208719491958618 -0.2495705783367157 5.428066253662109 115 81 54
-0.934911847114563 -0.05319136753678322 5.490894317626953 80 55 42
-2.5801355838775635 -0.6191387176513672 5.408810138702393 119 90 76
-2.1669528484344482 -1.8356735706329346 4.898542404174805 1 138 63
-3.213454246520996 -0.1307244598865509 5.199257850646973 112 89 73
-2.4100940227508545 -1.160014033317566 5.517084121704102 163 90 56
-2.1121537685394287 -0.34571704268455505 5.406440258026123 159 122 104
-2.5368900299072266 -0.2903168797492981 5.333357334136963 124 95 79
-1.6951452493667603 -0.3524920344352722 5.468175411224365 191 151 126
-0.26435548067092896 -1.0751593112945557 5.81003999710083 120 85 65
-0.21453706920146942 -1.0382810831069946 5.820121765136719 200 168 145
-0.3497140109539032 -0.5523229837417603 5.703094959259033 166 130 110
-0.6762944459915161 -1.9751231670379639 5.240423679351807 19 29 14
-1.7085365056991577 -0.258057564496994 5.442629814147949 178 138 113
-1.9429752826690674 -0.029153015464544296 5.355334758758545 121 86 67
-2.729628324508667 -3.1290054321289062 6.0307793617248535 84 58 41
-1.4379558563232422 -0.2369818240404129 5.478333473205566 194 152 130
-1.4769744873046875 -0.1409497857093811 5.434516429901123 81 51 33
-2.5173566341400146 -1.204454779624939 5.728924751281738 162 96 63
-2.395420789718628 -0.2603898346424103 5.344749450683594 199 161 142
-1.803478479385376 -0.2757212519645691 5.434544563293457 197 163 135
-0.972690999507904 -1.8967392444610596 5.212291240692139 175 192 171
-0.9044767618179321 -1.9603790044784546 5.174001216888428 11 24 7
-2.0416438579559326 -1.1667382717132568 5.591187000274658 135 147 106
-0.31889429688453674 -0.6207648515701294 5.697991847991943 180 148 125
-0.696029782295227 -0.6414324045181274 5.665660381317139 119 89 79
-1.1894586086273193 -0.30968528985977173 5.521780014038086 179 151 128
-1.4301905632019043 -3.641026258468628 7.291738986968994 17 30 39
-2.758638620376587 -0.4632112383842468 5.348788738250732 149 117 96
-0.5320897102355957 -0.9533733129501343 5.776424884796143 146 117 99
-1.7724626064300537 -0.20086830854415894 5.426659107208252 81 53 40
-1.5398216247558594 -0.5948584675788879 5.55558967590332 88 63 51
-0.7688396573066711 -2.0163118839263916 5.181484699249268 184 195 178
-3.528107166290283 -0.1583167165517807 5.1647114753723145 238 228 215
-1.422079086303711 -3.0490787029266357 6.125191688537598 41 67 85
-2.3180816173553467 -0.2538396716117859 5.360517501831055 96 67 50
-2.925469398498535 -0.1800159215927124 5.247537612915039 179 146 127
-1.0926779508590698 -0.21757903695106506 5.51336145401001 191 159 136
-2.290687322616577 -0.16155266761779785 5.33664083480835 184 149 127
-2.564973831176758 -1.186401605606079 5.442108631134033 40 24 23
-2.308494806289673 -1.7991937398910522 4.88709831237793 54 5 18
-1.5671112537384033 -3.181401014328003 6.145638465881348 88 118 142
-1.3207736015319824 -0.023307524621486664 5.426272392272949 174 136 113
-1.6309938430786133 -1.192609429359436 5.639338493347168 96 108 68
-0.8135619163513184 -2.000997304916382 5.1772894859313965 181 195 169
-1.7888619899749756 -0.13647113740444183 5.395288467407227 118 78 55
-0.9322085380554199 -0.13958899676799774 5.5126800537109375 142 106 84
-1.4098442792892456 -0.13559120893478394 5.458707332611084 155 114 94
-1.7580273151397705 -0.32544994354248047 5.455033302307129 115 77 56
-0.9306536316871643 -1.9464632272720337 5.183095932006836 165 189 177
-3.1001577377319336 -0.053641095757484436 5.193467140197754 203 176 156
-1.935567855834961 -0.6107622981071472 5.49989128112793 111 84 73
-2.31557035446167 -0.2604166865348816 5.358642578125 192 158 133
-1.9471768140792847 -0.05539530888199806 5.353541851043701 192 158 134
-3.169750690460205 -0.06973866373300552 5.190970420837402 100 82 76
