ply
format ascii 1.0
element vertex 695
property float x
property float y
property float z
property uchar red
property uchar green
property uchar blue
end_header
0.04132930934429169 0.056532084941864014 5.051120758056641 106 87 80
0.03523492440581322 0.09562523663043976 5.08573579788208 70 59 57
0.03888968750834465 -0.03610990568995476 5.014851093292236 128 109 102
0.05090268328785896 0.7276895642280579 5.7799811363220215 56 68 56
0.43867477774620056 0.09829358756542206 5.5474853515625 127 110 102
0.05466969683766365 0.337454229593277 5.150718688964844 100 79 78
0.4798339903354645 0.2845918536186218 5.83529806137085 148 152 151
0.016154391691088676 -0.1322983205318451 5.145761966705322 83 60 46
0.5070697069168091 0.22203263640403748 5.713525295257568 146 157 151
-0.010204505175352097 -0.5761365294456482 5.795907497406006 31 35 34
0.42343589663505554 -0.21784012019634247 5.648926258087158 197 169 145
0.5225616693496704 0.16506487131118774 5.7569379806518555 128 133 113
0.4581186771392822 0.09402890503406525 5.558659553527832 134 121 104
0.03546435385942459 -0.27171429991722107 5.013955116271973 123 108 101
0.5518233180046082 0.06641606241464615 5.78184700012207 82 64 52
0.025711549445986748 -0.5359792113304138 5.022883415222168 115 95 86
0.4896194040775299 0.18249011039733887 5.662149429321289 142 152 141
0.32698729634284973 0.252236932516098 5.494481563568115 53 72 76
0.3732143044471741 -0.08930134028196335 5.495783805847168 189 158 138
-0.3156149685382843 -0.5991131663322449 6.495361328125 120 109 79
0.07478808611631393 0.4617689847946167 5.466259002685547 35 40 33
0.25418636202812195 0.15031041204929352 5.4125895500183105 148 162 149
0.34509021043777466 0.4595073163509369 5.776681423187256 88 88 76
0.5435011982917786 -0.06435707211494446 5.961446762084961 149 151 130
0.4610641300678253 0.11134631931781769 5.597263336181641 119 103 80
0.49526700377464294 0.1880335956811905 5.690967082977295 86 98 84
0.5763946175575256 0.7350009083747864 5.53389835357666 87 113 112
0.014368537813425064 -0.37762650847435 5.16106653213501 94 63 45
0.39128899574279785 -0.0882098376750946 5.5009026527404785 184 152 127
0.11730916798114777 0.039676085114479065 5.381906986236572 105 116 110
0.4700056314468384 0.2862549126148224 5.976131916046143 124 121 106
0.02595037780702114 0.25835898518562317 5.226009368896484 74 56 44
0.5277402400970459 -0.11629660427570343 5.861254692077637 180 173 147
0.2531682550907135 0.2786649167537689 5.469676971435547 122 138 138
0.54369056224823 0.016171757131814957 5.847430229187012 149 133 100
0.423264741897583 0.23809722065925598 5.589111804962158 82 93 89
0.04914511367678642 0.3674967885017395 5.089498043060303 96 72 72
0.4002058207988739 -0.2898487448692322 5.738404750823975 127 110 100
0.36590448021888733 -0.1134512796998024 5.4974751472473145 151 120 118
0.045783258974552155 0.05511022359132767 5.020462989807129 110 85 80
0.014122171327471733 0.0708041712641716 5.207498550415039 68 53 50
0.36329910159111023 0.0015712854219600558 5.476861476898193 125 97 85
0.335772842168808 0.4486718773841858 5.737884998321533 98 93 87
0.40420740842819214 0.0022486571688205004 5.49339485168457 163 136 117
0.35115846991539 -0.2125873863697052 5.5527472496032715 204 177 160
0.026763154193758965 -0.03184895217418671 5.136285781860352 129 101 97
0.3876514434814453 -0.041959911584854126 5.508789539337158 164 142 121
-0.05589984729886055 -0.5765066742897034 5.462510585784912 135 106 100
0.037518974393606186 0.37179234623908997 5.160589218139648 114 90 86
0.3461929261684418 0.23639142513275146 5.503616809844971 145 165 163
0.5038536190986633 0.10215188562870026 5.6658220291137695 79 68 64
0.20497043430805206 -0.30823084712028503 5.570252895355225 107 106 101
0.4339781403541565 0.18705718219280243 5.533083438873291 129 140 126
-0.023852743208408356 -0.47618916630744934 5.312744617462158 157 129 118
0.30105501413345337 -0.4001889228820801 5.8338847160339355 232 241 222
0.5503551959991455 0.07773635536432266 5.865596294403076 119 91 69
0.019459690898656845 -0.06939541548490524 5.14467716217041 124 98 99
0.3404180109500885 0.16809161007404327 5.464285850524902 82 90 92
0.15992307662963867 -0.32553231716156006 5.569522857666016 153 161 150
0.04722028598189354 -0.16710060834884644 5.055176258087158 92 84 82
0.020506903529167175 -0.43715500831604004 5.020943641662598 124 105 90
0.48548388481140137 0.008706373162567616 5.609339714050293 143 116 95
0.47565075755119324 -0.06553459912538528 5.629371643066406 156 125 105
0.4615582525730133 -0.2552404999732971 5.955558776855469 201 171 147
0.5246959924697876 -0.11215323954820633 5.887537002563477 88 85 76
0.35929447412490845 0.2868446707725525 5.540587902069092 147 156 155
0.4695853888988495 -0.010033621452748775 5.585906028747559 162 136 121
0.04868543520569801 0.6624819040298462 5.925160884857178 64 65 57
0.5501992106437683 0.0010425670770928264 5.955495834350586 166 164 149
0.019622504711151123 -0.3872734308242798 5.523108959197998 97 99 96
0.3161918818950653 0.11246045678853989 5.444039821624756 160 172 168
0.03167613968253136 0.11603859812021255 5.106015205383301 107 89 87
0.003637529443949461 -0.02158927731215954 5.210557460784912 119 98 93
0.4547717869281769 -0.20363056659698486 6.131092548370361 196 198 174
0.5369870662689209 0.030607206746935844 5.752331733703613 136 103 88
0.5293499827384949 -0.11076227575540543 5.9003753662109375 78 74 71
0.5124641060829163 -0.09635034948587418 6.031436920166016 113 98 79
0.1933269202709198 -0.3157121539115906 5.566015720367432 184 185 171
0.5202622413635254 0.17039436101913452 5.938737869262695 100 79 76
0.47545817494392395 -0.19228298962116241 5.737691879272461 100 91 84
0.48550093173980713 0.14171117544174194 5.638081073760986 142 146 132
0.04381585493683815 0.6960480809211731 6.142026424407959 68 67 63
0.014055482111871243 -0.6242208480834961 5.8744330406188965 134 109 112
0.5183744430541992 0.013069809414446354 5.704128265380859 149 119 93
-0.0008525144658051431 -0.5168936848640442 5.208681583404541 86 62 58
0.026377791538834572 -0.25989609956741333 5.084841728210449 84 55 57
0.05020161345601082 0.5367429852485657 5.095555305480957 121 100 95
0.5157696604728699 0.23419170081615448 5.79777717590332 126 133 126
-0.032908983528614044 -0.4952651858329773 5.356837272644043 128 104 100
0.5005062818527222 -0.1568705439567566 5.708939552307129 178 142 116
0.049579083919525146 0.31346872448921204 5.0618696212768555 117 99 99
0.04247094690799713 0.15537798404693604 5.139042854309082 110 89 88
0.07888850569725037 0.6480965614318848 5.840756893157959 65 65 55
0.033836912363767624 -0.5280635952949524 5.0591816902160645 119 90 82
0.36485522985458374 -0.20814448595046997 5.603423118591309 202 170 147
0.49333256483078003 -0.0601295530796051 5.661686897277832 103 82 79
0.05414072051644325 0.5807279348373413 5.125041484832764 83 61 64
0.3987596333026886 0.9524499177932739 5.158541679382324 179 190 196
0.20797957479953766 -0.2866746187210083 5.545804023742676 197 173 147
0.37659627199172974 0.07027187198400497 5.475954532623291 163 165 154
0.006852999329566956 0.5930084586143494 5.2585649490356445 75 55 54
0.3096974194049835 -0.291766494512558 5.623399257659912 206 176 152
0.004190338775515556 -0.23495742678642273 5.164051532745361 124 99 95
0.4697539210319519 0.16934846341609955 5.612919330596924 112 122 113
0.2594967484474182 0.29214760661125183 5.487311840057373 94 99 103
0.01975185237824917 -0.01697944477200508 5.144843101501465 76 60 60
0.5276985168457031 -0.10775698721408844 5.966598987579346 141 114 95
0.607840895652771 0.9091832041740417 5.534679412841797 130 118 106
0.4199918210506439 -0.34550368785858154 5.849348545074463 224 189 159
0.5121217370033264 0.1677369624376297 5.7137370109558105 129 132 111
0.3371065557003021 0.1253102421760559 5.458491802215576 66 75 72
0.25942227244377136 -0.3816063702106476 5.740900039672852 226 220 204
0.41864705085754395 0.0901513621211052 5.517283916473389 84 87 80
0.523468017578125 -0.08865836262702942 5.754064559936523 95 82 76
0.00295350537635386 0.5259801149368286 5.2614617347717285 68 49 43
-9.479319851379842e-05 0.636763870716095 5.35282039642334 86 65 64
0.4901004731655121 -0.13429513573646545 5.674433708190918 178 141 112
0.24333058297634125 -0.4250313937664032 5.832155704498291 238 227 199
0.06751007586717606 0.24067288637161255 5.31572151184082 48 63 66
0.09073375165462494 1.005092740058899 5.029107570648193 92 66 67
0.030528835952281952 0.7805078029632568 5.20005464553833 85 45 45
0.5338389277458191 -0.03360854461789131 6.008589267730713 147 153 139
0.4018016457557678 0.0017690485110506415 5.494179725646973 163 136 117
0.31797704100608826 -0.38607388734817505 5.981747150421143 234 237 216
0.059403471648693085 0.1751219481229782 5.323456287384033 84 90 78
0.34613704681396484 -0.021663106977939606 5.455196857452393 69 64 60
0.504281759262085 -0.1571183055639267 5.801988124847412 186 155 126
0.47594767808914185 -0.17080439627170563 5.719692230224609 192 171 150
0.021324580535292625 -0.09617099165916443 5.1327738761901855 129 101 98
0.03735175356268883 -0.25998398661613464 5.080478668212891 84 55 57
0.03568350896239281 0.7772802710533142 5.198651313781738 83 51 40
0.512893795967102 0.1852218061685562 5.7316484451293945 138 151 134
0.24081985652446747 -0.28588420152664185 5.565110683441162 184 159 129
0.3349911570549011 0.02718331478536129 5.446223735809326 92 110 98
-0.1806948333978653 -0.5080077052116394 6.353051662445068 110 90 89
0.017548488453030586 -0.048255737870931625 5.149806499481201 84 55 51
0.4526602029800415 0.3254237771034241 5.750399112701416 62 82 73
0.014364384114742279 -0.4142698645591736 5.124129295349121 73 55 53
0.002714018803089857 -0.32552820444107056 5.195555686950684 126 98 87
0.42921727895736694 -0.11311811208724976 5.567880630493164 185 153 132
0.5439983606338501 0.017017826437950134 5.84722375869751 149 133 100
0.6070984601974487 0.8420084118843079 5.706651210784912 25 40 35
0.015767423436045647 0.6661098003387451 5.314098358154297 99 77 63
0.037087541073560715 0.17179624736309052 5.108920574188232 115 90 93
0.5386529564857483 0.08103684335947037 5.871211528778076 119 91 69
0.35550233721733093 -0.28917166590690613 5.670383453369141 186 157 143
0.263149231672287 0.10120390355587006 5.4097394943237305 127 135 124
0.3059144914150238 -0.38647693395614624 5.9870076179504395 234 237 216
0.030604859814047813 0.6168546676635742 5.234259128570557 89 58 56
0.6973316073417664 0.7644227743148804 5.207704544067383 174 149 118
0.01616758108139038 -0.27069154381752014 5.127679824829102 86 63 49
0.27833688259124756 0.06268984079360962 5.426444053649902 159 165 155
0.29036423563957214 0.3639405071735382 5.564848899841309 60 64 67
0.04202798008918762 -0.12210821360349655 5.403046131134033 82 83 69
0.5354720950126648 -0.09552440047264099 5.867946624755859 202 198 171
0.006594489794224501 0.41520586609840393 5.275291919708252 91 67 63
0.4034930169582367 -0.2747441530227661 5.726300239562988 196 172 148
0.5387089848518372 -0.07349877804517746 5.824809551239014 189 193 178
0.01913560926914215 -0.047299496829509735 5.149361610412598 84 55 51
0.05216929689049721 -0.49775201082229614 5.787524700164795 86 86 88
0.09108544141054153 1.0505872964859009 5.0412373542785645 45 35 34
0.36122551560401917 0.12329081445932388 5.480240345001221 92 99 109
-0.031305521726608276 -0.5331188440322876 5.377153396606445 129 105 101
-0.0022046840749680996 -0.33167311549186707 5.2179388999938965 74 67 51
0.01508990116417408 0.5431145429611206 5.247644901275635 84 69 66
-0.012972577475011349 -0.5139791369438171 5.272340774536133 94 71 57
-0.011992739513516426 -0.3591342866420746 5.257271766662598 79 61 59
0.009516426362097263 -0.13039185106754303 5.190237522125244 126 104 91
0.002025082241743803 -0.33276206254959106 5.217850685119629 74 67 51
-0.0013737848494201899 -0.5163404941558838 5.2087626457214355 86 62 58
0.03200432285666466 -0.2431238889694214 5.0355634689331055 65 56 47
0.32316580414772034 -0.3879244029521942 5.948436260223389 144 156 152
0.004951684270054102 -0.1302705556154251 5.1917805671691895 126 104 91
0.005649378057569265 -0.28307902812957764 5.176326274871826 117 95 81
0.33464157581329346 -0.3001016676425934 5.650328159332275 155 131 119
0.05832797288894653 0.5937316417694092 5.079563140869141 102 78 66
0.3791813254356384 0.4083855450153351 5.723484039306641 114 115 109
0.019363990053534508 0.02673107013106346 5.205842018127441 73 54 50
0.052820246666669846 0.6019903421401978 5.117243766784668 118 88 86
0.3071606755256653 -0.09853541851043701 5.461866855621338 182 165 137
0.49717751145362854 -0.09818220883607864 5.6653361320495605 157 128 98
0.2512551546096802 0.07164518535137177 5.407600402832031 160 159 155
0.03670687973499298 0.15823058784008026 5.129825115203857 87 66 65
0.44844910502433777 0.34719809889793396 5.793741226196289 119 121 108
0.04186607897281647 0.17023223638534546 5.106812000274658 115 90 93
0.45856669545173645 0.017186740413308144 5.568728923797607 159 126 109
0.5001818537712097 0.24709512293338776 5.7662553787231445 132 138 128
0.03104870393872261 0.5913523435592651 5.188155651092529 76 60 60
0.4351116716861725 0.28397226333618164 5.640315532684326 127 134 127
0.6886224746704102 0.7322192788124084 5.331967830657959 191 169 120
0.5157696604728699 0.23419170081615448 5.79777717590332 126 133 126
0.10529831796884537 1.1067354679107666 5.058164119720459 121 111 110
0.5036332607269287 -0.08925417810678482 5.740070343017578 175 143 118
0.5380802750587463 0.05173816531896591 5.837750434875488 105 81 71
0.0063622635789215565 -0.4601303040981293 5.154539585113525 71 64 48
0.4372309148311615 0.20218196511268616 5.593617916107178 140 149 144
0.508001983165741 -0.04519566148519516 5.653443336486816 164 132 119
0.5280826687812805 0.19224202632904053 5.841541290283203 149 163 140
0.2726539671421051 -0.4086846113204956 5.822393417358398 175 188 181
-0.03267170488834381 -0.5864511132240295 5.30778694152832 124 97 86
0.012008514255285263 -0.24744832515716553 5.14504337310791 71 53 51
0.5772525072097778 0.7578862309455872 5.567117691040039 56 74 60
0.35236233472824097 0.46298930048942566 5.845407962799072 111 112 107
0.43351423740386963 0.10981468111276627 5.542913913726807 47 52 58
0.54213947057724 0.00013719432172365487 5.945408821105957 123 124 116
0.44118157029151917 0.04529627785086632 5.542608261108398 89 75 75
0.4870736002922058 0.08756235241889954 5.599623203277588 138 110 99
0.022347811609506607 -0.11915452778339386 5.149642467498779 115 101 92
0.01835705153644085 -0.3650360405445099 5.182394027709961 135 113 102
0.5113338828086853 0.06345817446708679 6.093275547027588 162 173 165
0.004951684270054102 -0.1302705556154251 5.1917805671691895 126 104 91
0.08864611387252808 -0.35267624258995056 5.589663028717041 161 164 155
0.007800513878464699 -0.22844645380973816 5.1740593910217285 121 97 87
0.547741174697876 0.050973955541849136 5.898920059204102 77 79 65
-0.011117476038634777 -0.35900968313217163 5.257279396057129 79 61 59
0.24212154746055603 0.16360177099704742 5.426414489746094 147 156 161
0.0515177883207798 0.47598084807395935 5.1282057762146 115 84 81
0.02904524840414524 -0.4558214545249939 5.0648369789123535 71 66 63
0.4776146411895752 -0.04004041850566864 6.16207218170166 87 96 95
0.45994168519973755 -0.22229713201522827 5.70598840713501 202 166 140
0.030918220058083534 0.3918100893497467 5.1833882331848145 85 55 55
0.5359883904457092 0.0753101333975792 5.750335693359375 133 106 97
0.334738165140152 -0.31470316648483276 5.694878578186035 204 178 155
0.026108186691999435 0.0626852884888649 5.167128086090088 101 75 74
-0.028750527650117874 -0.48140445351600647 5.352258682250977 71 62 67
0.22303684055805206 -0.2712811827659607 5.5394206047058105 179 161 141
0.0035480239894241095 -0.4567422568798065 5.215460777282715 67 53 53
-0.029077189043164253 -0.5627489686012268 5.251264572143555 103 75 71
0.37581825256347656 -0.010555356740951538 5.4836201667785645 162 136 109
-0.01696891523897648 -0.43009477853775024 5.387546539306641 88 64 64
0.2729569375514984 -0.3992612361907959 5.8132548332214355 230 225 196
0.5193243026733398 -0.1450616419315338 5.9141645431518555 178 154 130
0.5411860346794128 -0.021642357110977173 5.947421550750732 158 162 147
-0.024345889687538147 -0.4116540253162384 5.338061332702637 74 59 56
0.018379859626293182 -0.40351948142051697 5.114894390106201 99 86 77
0.3452373743057251 -0.09628293663263321 5.487875461578369 140 116 106
0.040344640612602234 -0.10084745287895203 5.401493549346924 98 89 80
-0.08879092335700989 -0.559985876083374 5.586926460266113 103 79 67
-0.017848646268248558 -0.38930752873420715 5.291649341583252 134 110 100
0.4871077239513397 -0.005324902478605509 5.622567176818848 129 99 88
0.02051621489226818 -0.4334436357021332 5.097263813018799 76 55 50
0.48608219623565674 0.2586729824542999 5.984621047973633 72 70 73
0.6587907075881958 0.7622172236442566 5.182842254638672 121 103 89
0.4472968876361847 -0.13162794709205627 5.615135669708252 169 124 105
-0.0246860571205616 -0.3408469259738922 5.345325469970703 69 61 59
0.3431721329689026 -0.2993389070034027 5.662858009338379 214 186 162
-0.012898515909910202 -0.3596999943256378 5.282125473022461 105 89 76
0.005516882054507732 -0.24718396365642548 5.387832164764404 99 99 107
0.5012465119361877 -0.15064594149589539 5.85066556930542 189 167 146
0.026195203885436058 -0.2799680233001709 5.075223922729492 108 85 77
0.0947733148932457 0.6960874795913696 5.894369602203369 32 35 40
0.419560968875885 -0.10364017635583878 5.5381879806518555 161 122 105
0.015969140455126762 -0.1633676439523697 5.152483940124512 84 64 63
0.007544392719864845 -0.23301221430301666 5.188857078552246 72 60 62
0.5833820104598999 0.9191091060638428 5.491885662078857 95 84 64
-0.033882349729537964 -0.5923399329185486 5.320109844207764 97 77 70
0.005349524784833193 -0.34410741925239563 5.169112205505371 142 108 96
0.030421283096075058 0.627137303352356 6.160314083099365 46 44 49
-0.06340095400810242 -0.4809604287147522 5.462258338928223 79 67 67
0.025089064612984657 -0.508127748966217 5.0119309425354 127 107 100
0.003906329162418842 -0.29700398445129395 5.216264247894287 108 83 78
-0.01924627460539341 -0.6000156402587891 5.308009624481201 101 81 72
0.4248439371585846 -0.14132580161094666 5.59306526184082 193 166 139
-0.035209234803915024 -0.5977649688720703 5.397586345672607 107 82 77
0.04993376508355141 0.379003643989563 5.063538551330566 121 107 106
0.5461104512214661 -0.01178085245192051 5.829041004180908 171 172 156
0.536919891834259 -0.06984472274780273 5.8715128898620605 177 187 176
0.503351092338562 0.1638404279947281 5.681371212005615 81 79 66
0.0491192527115345 0.4143455922603607 5.017923831939697 127 115 117
0.04630536586046219 0.23655638098716736 5.039451599121094 37 33 30
0.39911097288131714 -0.267477810382843 5.699529647827148 200 168 143
0.06818374246358871 0.6899266242980957 5.832398414611816 25 27 22
0.048921018838882446 0.20910660922527313 5.01724910736084 115 99 99
0.5084877610206604 -0.16979871690273285 5.867270469665527 126 99 88
0.027063649147748947 -0.3749866783618927 5.0131096839904785 129 120 115
0.42146095633506775 -0.05053286254405975 5.549178600311279 171 147 123
-0.00839975755661726 0.6240054368972778 5.4875617027282715 72 52 54
-0.21226641535758972 -0.6759219765663147 6.352571487426758 170 159 139
0.37762340903282166 -0.28248724341392517 5.67978572845459 196 179 159
0.06962263584136963 0.703923761844635 5.816500186920166 93 76 56
0.05836052820086479 -0.4976816773414612 5.787563323974609 89 93 94
0.5264684557914734 -0.046274334192276 5.757506847381592 83 72 70
0.025317180901765823 -0.42846807837486267 5.037796974182129 51 43 41
0.48966920375823975 -0.20765244960784912 5.8237481117248535 187 159 135
0.03278624638915062 -0.036871954798698425 5.053766250610352 119 97 99
0.5292167067527771 -0.08625619113445282 5.789332866668701 95 84 78
0.4747803211212158 0.26213356852531433 5.710736274719238 130 146 133
0.5310420989990234 0.06770437955856323 5.698247909545898 75 61 60
0.3293677866458893 -0.2673356533050537 5.619928359985352 210 184 169
0.523468017578125 -0.08865836262702942 5.754064559936523 83 79 67
0.49333256483078003 -0.0601295530796051 5.661686897277832 88 73 70
0.5391597151756287 0.0026929338928312063 5.790334701538086 142 136 136
0.4628772437572479 -0.2597399055957794 5.996984004974365 209 221 211
0.4675564467906952 -0.02280176430940628 5.578097820281982 148 129 112
0.04106166586279869 0.00856676883995533 5.014307022094727 125 111 111
0.05431676656007767 -0.46771034598350525 5.72252082824707 30 29 24
0.5387089848518372 -0.07349877804517746 5.824809551239014 190 199 196
0.03523492440581322 0.09562523663043976 5.08573579788208 73 61 61
-0.0005660094902850688 -0.6339483857154846 5.175810813903809 193 175 165
0.5502668619155884 0.02228870801627636 5.9553656578063965 163 168 145
0.03854740411043167 -0.0542762316763401 5.03578519821167 67 47 40
0.03546435385942459 -0.27171429991722107 5.013955116271973 122 113 114
0.049137577414512634 0.17389458417892456 5.022554874420166 106 87 81
0.4555632770061493 -0.22378112375736237 5.747910976409912 198 175 157
0.0679062008857727 0.7016782760620117 5.015369415283203 128 105 111
-0.10056629031896591 -0.5802333354949951 5.681830406188965 93 71 73
0.47454267740249634 0.10376577079296112 5.60919189453125 139 124 121
0.035842619836330414 -0.012532761320471764 5.052217483520508 121 101 102
0.4372309148311615 0.20218196511268616 5.593617916107178 133 144 140
0.012190251611173153 0.0012434115633368492 5.21560525894165 115 96 98
0.05216929689049721 -0.49775201082229614 5.787524700164795 89 93 94
0.5051720142364502 -0.12198162078857422 5.738056659698486 169 149 122
0.034497957676649094 -0.13216516375541687 5.037653923034668 53 39 38
-0.011019798927009106 0.1387498527765274 5.008958339691162 105 79 80
0.5197723507881165 -0.0918944925069809 5.7537665367126465 79 68 62
0.5267357230186462 -0.04650355130434036 5.757518291473389 83 72 70
-0.18879422545433044 -0.6518828272819519 6.298741817474365 202 196 172
0.45164749026298523 -0.06071830168366432 5.583947658538818 164 143 124
0.5316573977470398 -0.08857080340385437 5.833069801330566 178 187 168
0.607840895652771 0.9091832041740417 5.534679412841797 121 117 105
0.06179039180278778 0.47014978528022766 5.017426013946533 121 106 101
0.4869519770145416 -0.21242649853229523 6.00197172164917 176 169 150
-0.09367188066244125 -0.6204519867897034 5.722488880157471 127 105 108
0.5489368438720703 -0.02124570682644844 5.793134689331055 145 141 130
0.4028438925743103 0.29481807351112366 5.603051662445068 148 153 149
0.5407541990280151 0.00728776678442955 5.982548236846924 93 96 89
0.4675564467906952 -0.02280176430940628 5.578097820281982 148 129 112
-0.06683864444494247 -0.6050223112106323 5.460882663726807 116 87 89
0.5260249376296997 0.1964496523141861 5.810750961303711 155 157 144
0.5367481112480164 -0.09493420273065567 5.867928504943848 205 209 184
0.4230317771434784 0.16691841185092926 5.551737308502197 139 141 140
0.5502380728721619 0.0011611361987888813 5.955409049987793 162 171 154
0.04543163254857063 0.44632261991500854 5.062957286834717 124 101 107
0.08567303419113159 0.9043687582015991 5.01086950302124 109 86 96
0.5192458033561707 0.20951582491397858 5.883336544036865 139 150 146
0.36229655146598816 0.11476892977952957 5.4921722412109375 156 171 168
0.5144737362861633 0.1931869089603424 5.7739386558532715 87 98 81
0.45923033356666565 -0.15389712154865265 5.646581172943115 182 157 135
0.06256011873483658 0.6007821559906006 5.039057731628418 47 38 39
0.44898560643196106 -0.10031996667385101 5.595296859741211 177 140 121
0.0775035172700882 -0.5821102261543274 5.8141326904296875 96 114 136
0.03733854368329048 -0.05444398522377014 5.035962104797363 67 47 40
0.5007519721984863 0.26042571663856506 5.833376407623291 142 156 139
0.03076966479420662 -0.3180532157421112 5.0113701820373535 136 125 131
0.40499693155288696 0.2998141050338745 5.620124816894531 66 71 64
0.5062962770462036 0.12956564128398895 5.684299945831299 136 139 132
0.5305860042572021 0.17484135925769806 5.84287691116333 38 47 46
0.5378672480583191 -0.05601624771952629 5.799241065979004 176 179 168
0.053974807262420654 0.4900386333465576 5.0086774826049805 89 78 84
0.48550093173980713 0.14171117544174194 5.638081073760986 130 146 136
0.49677401781082153 -0.21291908621788025 5.8674845695495605 184 169 150
-0.030552862212061882 0.6463111639022827 5.527658462524414 59 47 49
0.5249484777450562 0.08030572533607483 5.718186855316162 141 130 110
0.5304788947105408 -0.11014308035373688 5.81086540222168 148 126 113
0.5098273158073425 0.10468187183141708 5.6791229248046875 119 103 87
0.5354720950126648 -0.09552440047264099 5.867946624755859 205 209 184
0.5211948752403259 -0.09388366341590881 5.775454998016357 165 147 127
0.5333589315414429 -0.04370969533920288 5.770464897155762 164 146 132
0.44957417249679565 -0.14669498801231384 5.617856025695801 191 165 142
0.5030391216278076 0.2650412321090698 5.856698513031006 131 150 148
0.42040035128593445 0.22720138728618622 5.570737361907959 142 156 157
-0.024565014988183975 -0.6090761423110962 5.335848808288574 107 84 90
0.5084877610206604 -0.16979871690273285 5.867270469665527 126 99 88
0.08606510609388351 0.7124022841453552 5.824832916259766 81 82 77
0.5241290926933289 -0.12330124527215958 5.8260369300842285 185 169 154
0.0338042750954628 -0.196383535861969 5.036375522613525 59 38 43
-0.21431957185268402 0.941630482673645 6.419934272766113 139 130 121
-0.0859176516532898 -0.6131887435913086 5.690112113952637 111 86 81
0.05376354232430458 0.46441584825515747 5.03934383392334 58 46 48
0.5250997543334961 0.18372370302677155 5.820260047912598 81 82 76
0.046231042593717575 0.4784938395023346 5.059809684753418 127 111 114
0.47738131880760193 -0.2154874950647354 5.781786918640137 199 186 167
0.5404292941093445 0.09967698156833649 5.961304664611816 119 123 109
0.04479583725333214 0.23419882357120514 5.055029392242432 110 96 95
0.4576929807662964 0.11159074306488037 5.579754829406738 125 129 106
-0.05620080605149269 -0.6327092051506042 5.446532249450684 205 181 171
0.43351423740386963 0.10981468111276627 5.542913913726807 40 47 57
0.5265026092529297 -0.10540419071912766 5.80040979385376 175 158 148
0.06769288331270218 0.21280871331691742 5.347287654876709 80 85 81
0.44689783453941345 -0.25430142879486084 5.7860541343688965 185 166 152
0.48615580797195435 -0.2273082584142685 5.920344352722168 199 175 149
0.4539058208465576 -0.21672344207763672 5.727044105529785 194 175 158
0.520065188407898 0.195661723613739 5.754504680633545 86 98 88
0.03200432285666466 -0.2431238889694214 5.0355634689331055 66 41 37
0.5399332642555237 -0.07778559625148773 5.896781921386719 185 190 168
0.47446638345718384 0.17197927832603455 5.626945495605469 143 152 147
-0.025832459330558777 -0.28823569416999817 5.349027156829834 106 101 97
0.5471803545951843 0.08357347548007965 5.9455437660217285 157 170 160
0.07888850569725037 0.6480965614318848 5.840756893157959 66 67 59
0.01610901765525341 -0.3623654544353485 5.53798246383667 100 103 96
0.048792507499456406 0.48916488885879517 5.10293436050415 125 104 103
0.3605083227157593 -0.24503256380558014 5.60515832901001 211 185 162
0.36122551560401917 0.12329081445932388 5.480240345001221 84 88 97
0.5318341255187988 -0.10165318101644516 5.93992280960083 156 137 122
0.457345575094223 -0.031127337366342545 5.564398288726807 162 138 128
0.488972008228302 0.06030718609690666 5.622999668121338 139 105 93
0.2948119044303894 -0.3991570770740509 5.85909366607666 233 239 225
0.09191329032182693 1.0562790632247925 5.01900053024292 89 64 68
0.017548488453030586 -0.048255737870931625 5.149806499481201 83 59 55
-0.05641324445605278 -0.4932190775871277 5.53737735748291 66 55 59
0.522205114364624 0.11072482913732529 6.0853495597839355 159 170 166
0.5359846353530884 0.14238344132900238 5.803274631500244 68 59 52
0.4935494661331177 -0.01556404773145914 5.646174907684326 110 85 65
0.42476826906204224 -0.24701066315174103 5.705768585205078 215 190 170
0.32403308153152466 0.13828761875629425 5.453046798706055 159 162 145
0.5234094858169556 -0.14615140855312347 5.8705620765686035 104 90 81
0.046095430850982666 0.18872424960136414 5.017210483551025 115 95 94
-0.2533322870731354 -0.4756445586681366 6.494216442108154 143 138 100
0.5204154253005981 0.1653381735086441 5.757206439971924 123 127 110
0.5289968848228455 0.17877702414989471 5.972476005554199 159 171 167
0.03299866244196892 -0.1698235273361206 5.036075115203857 34 35 30
0.4906368851661682 -0.19836728274822235 5.8153462409973145 204 184 160
0.5163764357566833 -0.13569338619709015 5.793161869049072 191 173 149
0.03149504214525223 -0.09638280421495438 5.052042484283447 115 99 100
0.397875040769577 -0.04785013943910599 5.535793304443359 148 130 116
0.3767867684364319 -0.28643691539764404 5.701980113983154 204 181 167
0.02268843539059162 -0.4094204604625702 5.061624050140381 107 96 92
0.032697975635528564 -0.1708706021308899 5.036123752593994 34 35 30
-0.20313899219036102 -0.5759871006011963 6.299004554748535 110 94 95
0.44381874799728394 -0.1894247829914093 5.658244609832764 198 173 151
0.5084009766578674 0.22739914059638977 5.978875637054443 119 129 130
0.03341728076338768 -0.20164132118225098 5.378789901733398 109 116 122
0.06034589186310768 0.6009787321090698 5.0395660400390625 47 38 39
0.42861273884773254 0.09925861656665802 5.549797058105469 128 117 113
-0.11565960198640823 -0.6436694860458374 5.75263786315918 177 165 143
0.4340980052947998 -0.1730322390794754 5.622053623199463 184 166 146
0.5291425585746765 0.1612204909324646 5.791619777679443 141 147 133
0.5205690264701843 -0.08813291043043137 5.755013942718506 83 79 67
0.04040712118148804 -0.21839329600334167 5.420181751251221 87 87 87
0.5432990193367004 -0.040671661496162415 5.820574760437012 176 178 175
0.5357238054275513 -0.0028450775425881147 6.062236309051514 168 169 163
0.5744093656539917 0.7348749041557312 5.491698741912842 79 70 63
0.518634557723999 0.19624242186546326 5.754971981048584 86 98 88
0.0019113607704639435 0.45213568210601807 5.357498645782471 64 42 45
0.05268918722867966 0.23118901252746582 5.020716190338135 115 95 96
0.45989614725112915 -0.1205061748623848 5.635931968688965 117 92 88
0.4145755171775818 -0.023514440283179283 5.535386085510254 151 128 114
0.4313044250011444 -0.27598944306373596 6.051217555999756 198 206 183
0.07484493404626846 -0.5821366310119629 5.814748764038086 96 114 136
0.023061100393533707 -0.0330159068107605 5.137371063232422 127 106 105
0.4861786961555481 -0.07063327729701996 5.650554656982422 167 153 150
0.4857828915119171 0.1569749116897583 5.6477789878845215 120 123 116
0.07870642095804214 0.603927493095398 5.684798717498779 65 68 59
0.02323542721569538 0.29123246669769287 5.303193092346191 25 30 34
0.5183744430541992 0.013069809414446354 5.704128265380859 144 117 87
0.04548203572630882 0.14693865180015564 5.026150703430176 108 80 79
0.07344263046979904 0.8133813738822937 5.017237186431885 132 105 112
-0.09171084314584732 -0.606468677520752 5.615110874176025 130 116 107
0.490776002407074 0.20367085933685303 5.684792518615723 142 155 145
0.5103651285171509 0.23912470042705536 5.8538336753845215 146 155 154
-0.07739270478487015 -0.6319929361343384 5.539359092712402 204 181 167
0.23087415099143982 -0.2987900972366333 5.563876152038574 196 165 144
0.17646197974681854 -0.4588583707809448 5.909958839416504 191 179 167
0.6070984601974487 0.8420084118843079 5.706651210784912 13 37 24
0.3585260808467865 -0.36333945393562317 6.038700580596924 239 247 232
0.5183356404304504 0.20998626947402954 5.995849609375 139 146 154
0.026950879022479057 0.16793428361415863 5.2621660232543945 47 42 46
0.503646194934845 0.11316840350627899 5.6723151206970215 70 70 68
0.4308074414730072 0.35960692167282104 5.755904674530029 122 129 111
0.5448466539382935 0.0451260544359684 5.809271812438965 98 78 71
0.534012496471405 -0.10890857130289078 5.916608810424805 175 170 150
0.5402907729148865 -0.06450408697128296 5.962654113769531 142 141 121
0.43867477774620056 0.09829358756542206 5.5474853515625 128 117 113
-0.05641324445605278 -0.4932190775871277 5.53737735748291 66 55 59
0.46344709396362305 0.17059387266635895 5.61413049697876 105 115 107
-0.18289458751678467 -0.629615068435669 6.279820442199707 91 68 62
0.5455412864685059 -0.007395805325359106 5.944729804992676 99 104 100
0.4870843291282654 0.23591740429401398 5.718843460083008 141 152 144
0.05222688987851143 0.3673223555088043 5.010705947875977 141 120 127
-0.03970534726977348 0.7104910016059875 5.596758842468262 64 50 50
0.5318504571914673 0.009648548439145088 6.052404403686523 100 108 95
0.03032287210226059 0.012589498423039913 5.0570855140686035 114 98 98
0.5467820167541504 0.05863254889845848 5.947282791137695 116 127 113
0.5234993100166321 -0.1405540108680725 5.970813274383545 180 157 139
-0.0654553771018982 -0.619589626789093 5.56069803237915 144 138 142
0.5476199388504028 -0.02885691449046135 5.862980842590332 169 183 168
0.5538421869277954 0.03315882757306099 5.928275108337402 166 174 161
0.6101905107498169 0.9054915308952332 5.553786277770996 140 117 86
0.40910449624061584 -0.05972888320684433 5.543263912200928 152 120 99
-0.031305521726608276 -0.5331188440322876 5.377153396606445 128 111 104
-0.029077189043164253 -0.5627489686012268 5.251264572143555 89 71 69
0.5757150053977966 0.7209463715553284 5.492765426635742 164 160 131
0.47497856616973877 -0.22710378468036652 5.821303367614746 200 182 168
0.021324580535292625 -0.09617099165916443 5.1327738761901855 124 109 102
0.5320699214935303 -0.017035501077771187 6.032745361328125 164 171 164
0.5277402400970459 -0.11629660427570343 5.861254692077637 175 179 162
0.5467231869697571 -0.04404367506504059 5.8819708824157715 178 183 163
0.07173720747232437 0.9399926066398621 5.012135028839111 102 90 92
0.5272610187530518 0.004988832864910364 6.042408466339111 163 172 155
0.34509021043777466 0.4595073163509369 5.776681423187256 80 79 74
0.47594767808914185 -0.17080439627170563 5.719692230224609 189 172 152
0.3376530408859253 0.03374429792165756 5.460757255554199 160 172 160
0.005718772765249014 0.29723605513572693 5.308723449707031 25 30 34
0.032663244754076004 -0.3038627505302429 5.052472114562988 119 99 100
0.014368092641234398 0.06141334027051926 5.194556713104248 101 83 83
0.2707337439060211 0.14380745589733124 5.427973747253418 154 164 155
-0.049300167709589005 -0.47565609216690063 5.59758996963501 51 46 50
-0.013711574487388134 -0.41472500562667847 5.280965328216553 54 48 48
-0.016644522547721863 -0.3715406656265259 5.294155120849609 77 63 60
0.4404616951942444 -0.23604288697242737 5.7251996994018555 208 187 168
0.4771411120891571 -0.2202000916004181 6.026018142700195 205 208 199
0.5282773971557617 -0.05536000430583954 6.035277843475342 66 75 70
0.5346531867980957 0.12356697022914886 5.793669700622559 124 102 91
0.05740785971283913 0.5994332432746887 5.055509090423584 114 99 94
0.12368094176054001 -0.32501059770584106 5.550984859466553 193 204 188
0.5277365446090698 -0.06542795896530151 6.0165228843688965 169 182 165
0.5450900197029114 0.017333602532744408 5.797532081604004 48 50 49
0.4584854543209076 -0.18925237655639648 5.6927032470703125 193 177 162
0.019570304080843925 0.46768856048583984 5.165474891662598 88 73 66
0.09297613054513931 -0.048944249749183655 5.416075229644775 151 115 89
0.5247370004653931 0.1837422102689743 5.820329666137695 81 82 76
0.47565075755119324 -0.06553459912538528 5.629371643066406 165 137 115
-0.023852743208408356 -0.47618916630744934 5.312744617462158 152 133 127
0.47207197546958923 -0.16749513149261475 6.124819278717041 92 98 94
0.4935494661331177 -0.01556404773145914 5.646174907684326 110 85 65
0.48245373368263245 0.22640301287174225 5.694423675537109 147 149 146
0.5280826687812805 0.19224202632904053 5.841541290283203 148 160 158
0.5338389277458191 -0.03360854461789131 6.008589267730713 137 148 140
0.00956709124147892 -0.3832473158836365 5.500862121582031 96 115 129
0.0445186048746109 0.20283974707126617 5.053973197937012 113 89 87
0.045750562101602554 0.39438799023628235 5.072747230529785 92 70 72
-0.032908983528614044 -0.4952651858329773 5.356837272644043 137 109 108
0.48322048783302307 -0.04533341899514198 5.645086288452148 96 71 66
0.4647776186466217 -0.21143445372581482 5.737030982971191 117 97 88
0.5038536190986633 0.10215188562870026 5.6658220291137695 58 57 53
0.4661983549594879 -0.19980528950691223 5.72871208190918 195 169 146
0.2337181717157364 0.42772671580314636 5.595954418182373 78 75 66
0.3826161324977875 0.3646352291107178 5.63997220993042 124 137 120
0.5198653936386108 -0.090020090341568 6.018446445465088 166 139 109
0.35840797424316406 -0.36825621128082275 5.874584674835205 221 198 166
0.019459690898656845 -0.06939541548490524 5.14467716217041 125 110 107
0.01975185237824917 -0.01697944477200508 5.144843101501465 71 59 63
0.5311722159385681 -0.009805794805288315 6.049335479736328 57 61 64
0.013184754177927971 -0.108980692923069 5.1603474617004395 72 59 51
0.5307391285896301 0.11796385794878006 5.7751922607421875 103 71 56
0.3872005343437195 -0.16028130054473877 5.551020622253418 198 174 164
0.025711549445986748 -0.5359792113304138 5.022883415222168 118 99 93
0.504281759262085 -0.1571183055639267 5.801988124847412 180 145 123
0.26014381647109985 0.009294973686337471 5.412661075592041 77 72 68
0.01913560926914215 -0.047299496829509735 5.149361610412598 83 59 55
0.4784538745880127 -0.1928127259016037 5.736483097076416 96 82 82
0.08000558614730835 0.42459172010421753 5.468786239624023 76 77 72
0.3626464009284973 -0.2985032796859741 5.724762439727783 209 193 168
-0.016644522547721863 -0.3715406656265259 5.294155120849609 77 63 60
0.33375218510627747 -0.12657423317432404 5.505611419677734 192 168 142
0.4896194040775299 0.18249011039733887 5.662149429321289 138 148 140
0.5049386024475098 0.082370325922966 5.659972667694092 46 50 51
0.08679138869047165 0.6949774026870728 5.870279312133789 31 36 32
0.5292737483978271 0.05315413698554039 5.731533050537109 119 102 95
0.03567035123705864 -0.08312050253152847 5.025635242462158 100 82 80
0.3486875891685486 -0.37712764739990234 5.9311203956604 242 218 190
0.5155103802680969 0.20625104010105133 5.757257461547852 152 160 137
0.1614110916852951 -0.1802145540714264 5.460483551025391 179 153 116
0.06528884917497635 0.19050247967243195 5.342290878295898 75 77 66
-0.20447894930839539 -0.6028039455413818 6.364904880523682 118 112 88
-0.028750527650117874 -0.48140445351600647 5.352258682250977 52 47 53
0.012008514255285263 -0.24744832515716553 5.14504337310791 59 55 54
0.05928484722971916 0.6021022796630859 5.012323379516602 102 69 76
0.5378212928771973 0.7128241062164307 5.376551628112793 97 76 49
0.48322048783302307 -0.04533341899514198 5.645086288452148 96 71 66
0.47912126779556274 -0.23402243852615356 5.862257957458496 190 171 154
0.04247094690799713 0.15537798404693604 5.139042854309082 97 66 71
0.04914511367678642 0.3674967885017395 5.089498043060303 91 71 70
0.013742780312895775 -0.040440015494823456 5.175705909729004 69 61 59
0.30105501413345337 -0.4001889228820801 5.8338847160339355 226 238 224
0.5364355444908142 0.13392449915409088 5.950497627258301 160 161 156
-0.06515898555517197 -0.5478225946426392 5.556700706481934 101 83 79
0.48685258626937866 -0.20770759880542755 5.981503486633301 201 175 150
0.5435011982917786 -0.06435707211494446 5.961446762084961 142 141 121
0.01870836690068245 -0.6143298149108887 5.151366233825684 123 100 108
0.019622504711151123 -0.3872734308242798 5.523108959197998 85 101 101
0.08468591421842575 0.6228132247924805 5.700616836547852 38 38 40
0.07165517657995224 -0.1112770289182663 5.411256790161133 43 44 48
-0.05334262177348137 -0.5824471712112427 5.467637062072754 133 114 107
0.4991821050643921 0.06578847020864487 5.643380165100098 116 100 84
0.35949480533599854 0.4185849130153656 5.692694187164307 30 49 45
0.006852999329566956 0.5930084586143494 5.2585649490356445 67 49 47
0.6113296747207642 0.8857492804527283 5.5936598777771 166 154 128
0.44744282960891724 0.2698371410369873 5.6628193855285645 129 143 126
-0.07247763127088547 -0.5476881265640259 5.5322418212890625 116 87 79
0.5332244634628296 -0.1010124534368515 5.891768455505371 192 201 174
0.0691286027431488 0.740549623966217 5.010718822479248 130 105 109
0.4657021760940552 0.15474320948123932 5.605920791625977 102 112 104
0.022347811609506607 -0.11915452778339386 5.149642467498779 125 114 112
0.3889334499835968 0.05718052387237549 5.508347511291504 67 63 60
0.024959271773695946 -0.5851895213127136 5.062412738800049 97 86 82
-0.06655813753604889 -0.5621303915977478 5.548287868499756 144 114 106
0.4561541974544525 0.03437269106507301 5.575908660888672 144 117 100
0.0025592201855033636 -0.5309000611305237 5.836736679077148 51 54 47
0.028430145233869553 -0.5185389518737793 5.04154634475708 58 42 42
0.05099314823746681 0.35456326603889465 5.02388334274292 112 92 91
0.549898087978363 0.049230773001909256 5.853462219238281 147 137 112
0.536072850227356 -0.038936272263526917 6.028504371643066 168 177 160
0.44844910502433777 0.34719809889793396 5.793741226196289 117 118 100
0.5027794241905212 -0.13586704432964325 5.7463274002075195 133 103 95
-0.01641198992729187 -0.4768717885017395 5.3111066818237305 152 133 127
0.4526897072792053 -0.2710796594619751 5.969789505004883 112 103 96
-0.2926560342311859 -0.6542022228240967 6.255122661590576 187 183 158
0.5036107897758484 0.06153276562690735 5.657934665679932 46 31 28
0.35244816541671753 0.11573070287704468 5.474191188812256 145 159 159
0.025089064612984657 -0.508127748966217 5.0119309425354 130 111 104
0.5353533625602722 -0.1091703251004219 5.916778087615967 175 170 150
0.11520637571811676 0.23827481269836426 5.4180707931518555 76 87 89
0.5067645907402039 0.09157437831163406 5.652294635772705 134 119 100
0.49526700377464294 0.1880335956811905 5.690967082977295 87 80 70
0.3477255403995514 -0.1548364907503128 5.5229620933532715 189 165 141
0.45706671476364136 -0.130406454205513 5.64542818069458 176 145 127
-0.033882349729537964 -0.5923399329185486 5.320109844207764 90 76 67
0.5463764667510986 0.07138919085264206 5.796853542327881 127 109 95
0.5045682787895203 0.24917812645435333 5.888045787811279 105 118 108
0.25418636202812195 0.15031041204929352 5.4125895500183105 150 160 161
0.002714018803089857 -0.32552820444107056 5.195555686950684 129 110 103
0.0365227609872818 0.09382928162813187 5.305721759796143 79 88 85
0.4472968876361847 -0.13162794709205627 5.615135669708252 156 117 102
0.546420693397522 0.03643559664487839 5.821733474731445 134 130 103
0.053662508726119995 0.35529568791389465 5.010841369628906 113 92 97
0.566626250743866 0.8684244751930237 5.547317028045654 64 57 51
0.5506777763366699 0.03857755661010742 5.902935981750488 170 179 162
0.45730867981910706 -0.23509038984775543 5.781553745269775 210 194 169
-0.03128612041473389 -0.4606929123401642 5.347733020782471 87 63 63
0.5382731556892395 -0.08234543353319168 5.930505752563477 183 186 167
0.06805387139320374 0.5652551054954529 5.122139930725098 86 68 64
0.04168229177594185 0.2038840502500534 5.271204948425293 51 44 52
0.5435847640037537 -0.04250683635473251 5.926340103149414 163 169 157
0.5138302445411682 -0.1551063507795334 5.832141876220703 176 149 132
0.32579517364501953 -0.03622808679938316 5.457190990447998 155 131 107
0.01616758108139038 -0.27069154381752014 5.127679824829102 89 61 58
0.026763154193758965 -0.03184895217418671 5.136285781860352 127 106 105
0.3876514434814453 -0.041959911584854126 5.508789539337158 168 143 123
0.5027794241905212 -0.13586704432964325 5.7463274002075195 133 103 95
0.030265573412179947 -0.49725010991096497 5.027432441711426 127 103 103
0.03889217972755432 0.057883068919181824 5.007066249847412 74 58 59
0.497944176197052 -0.19024595618247986 5.846630096435547 188 162 135
0.41201484203338623 0.0807630643248558 5.5286383628845215 126 117 100
0.04275291785597801 0.07404781132936478 5.064219951629639 112 96 96
-0.0008525144658051431 -0.5168936848640442 5.208681583404541 78 66 68
0.02283356338739395 -0.4451419413089752 5.022077560424805 112 101 97
0.07481362670660019 0.8423185348510742 5.009186267852783 130 109 116
0.07862888276576996 -0.12327191978693008 5.411707878112793 130 102 88
0.5294626951217651 -0.013326788321137428 5.792688846588135 51 45 47
0.5215029716491699 -0.05853896960616112 5.721007823944092 177 156 137
0.25093019008636475 0.00036985724000260234 5.412301540374756 135 123 97
0.4987150728702545 -0.10803410410881042 5.680633068084717 177 153 129
0.0855356827378273 0.9629420042037964 5.024668216705322 101 81 82
0.04022173583507538 0.11943552643060684 5.011138439178467 75 55 54
-0.24083906412124634 -0.4499402642250061 6.482210636138916 71 59 59
0.40969011187553406 -0.292599618434906 6.057056427001953 223 227 210
0.5234094858169556 -0.14615140855312347 5.8705620765686035 104 90 81
0.5347370505332947 -0.09678962081670761 5.955813407897949 164 152 128
0.5402378439903259 0.8026120066642761 5.741940975189209 100 127 94
-0.012972577475011349 -0.5139791369438171 5.272340774536133 91 68 54
0.529843807220459 0.14388629794120789 5.998141765594482 108 113 107
0.03967005014419556 0.6112033128738403 5.134563446044922 75 57 57
0.003637529443949461 -0.02158927731215954 5.210557460784912 110 96 85
0.4881718158721924 0.21177276968955994 6.065274238586426 134 154 161
0.5355374217033386 -0.012124540284276009 5.766655921936035 92 71 66
0.2435641884803772 -0.32623085379600525 5.60650634765625 202 184 162
0.028782309964299202 -0.025090394541621208 5.060993194580078 70 65 72
-0.026012010872364044 -0.6182781457901001 5.290346622467041 150 135 130
0.5032056570053101 -0.16157948970794678 5.808295249938965 180 140 115
0.2531682550907135 0.2786649167537689 5.469676971435547 113 138 135
0.4905620515346527 0.2120395004749298 5.699416637420654 80 81 67
0.5156519412994385 -0.1802881956100464 5.898266792297363 170 143 124
0.0416908785700798 -0.18149541318416595 5.415952205657959 34 34 34
0.3424539268016815 -0.08206070959568024 5.481325149536133 182 155 134
-0.10753647983074188 -0.6093356013298035 5.754488468170166 131 107 105
0.5092296004295349 0.2610988914966583 5.811722755432129 121 129 118
0.05142867565155029 -0.02656444162130356 5.33050012588501 77 76 71
0.5460357069969177 -0.03974347934126854 5.908956527709961 177 185 174
0.21937495470046997 0.5554475784301758 5.856442451477051 33 33 41
0.5321254134178162 -0.11984020471572876 5.964445114135742 174 163 141
0.5225616693496704 0.16506487131118774 5.7569379806518555 123 127 110
0.0012664347887039185 -0.4297507107257843 5.2000226974487305 114 94 93
0.2622038722038269 0.13277177512645721 5.421408176422119 62 67 73
0.32887473702430725 -0.39527904987335205 5.922543525695801 232 239 223
0.5370585918426514 0.0954216867685318 5.990840911865234 146 167 160
-0.008194541558623314 -0.33246493339538574 5.292247295379639 83 65 65
0.3756164610385895 0.060266006737947464 5.472377300262451 92 107 102
0.5216328501701355 0.1968645453453064 5.812087535858154 155 157 144
0.5332587957382202 -0.010581453330814838 6.048782825469971 57 61 64
0.4366343021392822 0.019199492409825325 5.575202941894531 159 132 111
-0.008130989037454128 -0.5988569259643555 5.243025302886963 107 83 81
-0.01031841803342104 -0.32137638330459595 5.24336576461792 114 95 89
-0.004917921032756567 -0.5122087597846985 5.228963375091553 127 116 110
0.03257409483194351 -0.34203678369522095 5.49950647354126 80 90 81
0.45856669545173645 0.017186740413308144 5.568728923797607 159 132 111
0.03331549093127251 0.05112509801983833 5.066484451293945 97 71 70
0.01292791310697794 -0.08361300081014633 5.184610366821289 107 92 89
0.4199918210506439 -0.34550368785858154 5.849348545074463 219 187 162
0.4561615586280823 -0.21046805381774902 5.741557598114014 117 97 88
0.5110378265380859 -0.15009421110153198 6.0218048095703125 180 169 151
0.0873773843050003 1.0896697044372559 5.037613868713379 24 22 27
0.3094255030155182 -0.23770399391651154 5.569577217102051 187 175 153
0.3408326208591461 -0.3771772086620331 5.873757839202881 134 133 113
0.37594327330589294 -0.33060967922210693 5.968082904815674 165 152 136
