ply
format ascii 1.0
element vertex 694
property float x
property float y
property float z
property uchar red
property uchar green
property uchar blue
end_header
0.21576735377311707 -0.26527461409568787 8.525077819824219 164 177 160
0.8040955066680908 0.8194193243980408 9.433306694030762 78 68 67
0.4447326958179474 0.6813046932220459 9.164011001586914 31 43 59
0.22660544514656067 -0.5597383975982666 8.735422134399414 217 237 225
0.31697362661361694 -0.973211407661438 9.17080020904541 95 72 78
-0.39353039860725403 -0.3623948395252228 8.402297973632812 190 167 151
-0.11990071088075638 -0.507195234298706 8.498502731323242 226 243 237
0.07977063953876495 0.6127864718437195 8.934332847595215 61 61 63
0.5188013911247253 -0.838976263999939 9.172205924987793 87 67 68
-0.10750654339790344 -0.24988262355327606 8.49317741394043 184 187 166
0.6304898858070374 0.1909506916999817 9.017890930175781 111 112 117
-0.1854780614376068 0.6510842442512512 8.721522331237793 50 42 39
0.6562484502792358 -0.1776302605867386 6.855976104736328 89 74 69
-0.11761962622404099 -0.08168287575244904 8.323680877685547 126 124 109
0.5483205318450928 -0.8821571469306946 9.183564186096191 117 97 96
0.5070738792419434 0.2131844460964203 8.917551040649414 137 163 164
0.19597387313842773 0.22582408785820007 8.654523849487305 154 174 185
-0.36152219772338867 0.25440701842308044 8.45348834991455 130 149 147
0.5010824799537659 -0.8412662744522095 9.238485336303711 88 81 88
0.3242770731449127 0.007887463085353374 8.582408905029297 143 155 155
0.8948733806610107 -0.553274929523468 9.353743553161621 118 87 92
0.07769549638032913 0.4982680380344391 8.74506950378418 41 54 62
0.5510599613189697 -0.31019529700279236 8.888036727905273 162 157 135
0.6552918553352356 -0.5311639904975891 8.01868724822998 113 105 102
0.37993866205215454 0.22173620760440826 8.823241233825684 142 162 169
0.6033152937889099 -0.07597143948078156 7.77795934677124 109 88 93
0.16992253065109253 1.1100997924804688 9.121338844299316 15 19 20
0.3852148652076721 -0.9307548403739929 9.245646476745605 75 59 59
0.6130062341690063 -0.7679255604743958 9.600732803344727 85 64 61
0.32011038064956665 -0.20362573862075806 8.658583641052246 162 170 157
0.07716639339923859 -0.5527854561805725 8.654248237609863 189 200 184
0.6913154125213623 -0.6735126972198486 9.296920776367188 97 75 77
-0.23571284115314484 0.2214793562889099 8.471650123596191 119 139 128
0.9253930449485779 -0.5934717059135437 9.612584114074707 111 99 103
-0.32364264130592346 0.5534875988960266 8.62375259399414 57 63 59
0.7347714900970459 -0.5683158040046692 9.231025695800781 68 52 55
-0.6341263651847839 0.30993062257766724 8.511842727661133 112 143 161
0.6645463705062866 0.14713002741336823 9.087762832641602 110 111 116
0.48124054074287415 0.08393438905477524 8.871745109558105 48 56 67
-0.2774750590324402 0.43563973903656006 8.495948791503906 74 64 63
0.19503939151763916 0.18513140082359314 8.653666496276855 160 178 180
-0.21840284764766693 0.3989008665084839 8.598010063171387 104 80 70
0.46688932180404663 -0.1847900152206421 8.83724308013916 134 138 121
0.06655072420835495 -0.5281242728233337 8.646777153015137 226 240 225
0.14224453270435333 -0.09053374081850052 8.59062385559082 182 200 178
-0.39551982283592224 0.13060259819030762 9.96200180053711 153 157 156
0.13739243149757385 -0.08172380924224854 8.61760139465332 182 200 178
-0.1729043871164322 0.1462503969669342 8.502376556396484 153 159 155
-0.5901305675506592 -0.19059422612190247 9.833309173583984 149 160 144
0.1902453750371933 0.4256518483161926 8.708499908447266 113 150 158
-0.028483064845204353 0.16976982355117798 8.563835144042969 159 173 158
-0.03737940639257431 -0.32602810859680176 8.537520408630371 191 205 190
0.2103024423122406 0.1722295731306076 8.355335235595703 121 150 164
-0.0863126814365387 0.2566601634025574 8.99431324005127 122 153 156
0.13024640083312988 -0.3140108287334442 8.591415405273438 170 178 155
0.4383769929409027 0.18769827485084534 8.81639289855957 143 163 164
0.05848842114210129 0.2304316908121109 8.590879440307617 149 168 172
-0.16327637434005737 0.15307186543941498 8.508493423461914 132 147 140
0.2598351836204529 -0.20706523954868317 8.699748039245605 180 192 170
0.13974535465240479 0.14408329129219055 8.605284690856934 163 179 168
-0.0901711955666542 -0.08089322596788406 9.611262321472168 148 167 163
0.273872971534729 -0.08986796438694 8.524059295654297 166 179 169
0.4233086109161377 0.1896286904811859 8.147176742553711 145 160 153
0.10920991748571396 -0.30963730812072754 8.618016242980957 202 214 192
0.08939209580421448 -0.5023033022880554 8.607094764709473 205 214 197
0.08893594145774841 0.3300688862800598 8.675117492675781 124 152 155
0.010249880142509937 0.29682913422584534 8.606256484985352 152 171 169
-0.2859870195388794 0.2751254737377167 8.451218605041504 46 61 66
0.19480586051940918 0.2427583783864975 7.585641384124756 151 167 166
0.14221125841140747 -0.14848805963993073 8.938525199890137 155 171 171
0.8721742033958435 0.6060598492622375 9.304647445678711 97 91 95
-0.06038075312972069 0.23837721347808838 8.342344284057617 108 119 111
0.25575610995292664 -0.14057539403438568 8.656289100646973 66 72 70
0.8520421385765076 0.5826393961906433 9.274249076843262 70 52 52
-0.23406803607940674 0.32639726996421814 8.504937171936035 131 147 146
0.4392888844013214 0.25188004970550537 8.832265853881836 128 156 157
-0.05992712453007698 -0.23875318467617035 8.657071113586426 191 204 187
-0.18165330588817596 0.0787406861782074 9.53470230102539 135 156 159
1.0687037706375122 -0.4165581166744232 9.32121753692627 135 155 156
0.16459688544273376 -0.34883105754852295 8.658700942993164 172 184 164
-0.18830081820487976 0.1598573923110962 8.507832527160645 146 164 152
0.9028883576393127 0.5389823913574219 9.329536437988281 106 103 112
-0.04528556019067764 0.5065261125564575 8.63968563079834 84 75 70
0.010231774300336838 -0.9303579926490784 8.933943748474121 35 27 24
-0.16524291038513184 0.05209330469369888 9.246857643127441 102 123 126
0.07834035158157349 0.45532071590423584 8.664400100708008 119 145 146
0.05929432064294815 0.13759560883045197 8.024210929870605 60 69 68
0.1337328404188156 -0.37193310260772705 8.603510856628418 194 208 195
-0.43407052755355835 -0.23750467598438263 8.910679817199707 154 168 145
0.35361313819885254 -0.11211149394512177 7.910355567932129 65 74 73
0.10484401881694794 -0.3671365976333618 8.587879180908203 186 203 187
0.1483336240053177 -0.34630563855171204 8.643174171447754 187 202 183
0.9134904742240906 0.45975998044013977 9.298975944519043 102 89 115
-0.2435488998889923 0.39646437764167786 8.496851921081543 50 48 51
-0.3440398573875427 0.1749790459871292 8.971258163452148 145 163 165
0.4145530164241791 0.24146097898483276 8.853485107421875 111 133 130
0.16738662123680115 -0.2904207110404968 7.63919734954834 216 234 220
0.40984541177749634 0.1833670735359192 8.839792251586914 100 114 114
0.15285028517246246 0.13289116322994232 8.270017623901367 90 105 108
0.07517298310995102 0.4118040204048157 8.644627571105957 130 147 155
0.06352958083152771 0.08559133857488632 8.617558479309082 166 175 172
0.09286137670278549 -0.20068642497062683 8.564019203186035 194 205 188
-0.4464876055717468 0.19698156416416168 10.905888557434082 152 171 169
0.295590877532959 -0.17607291042804718 8.720420837402344 162 174 154
-0.0333954393863678 0.3163427710533142 8.596226692199707 136 155 161
0.05098339915275574 0.26091718673706055 8.639196395874023 157 177 166
-0.1774049550294876 -0.20008231699466705 8.020828247070312 81 71 72
0.29114830493927 -0.4850405156612396 10.231816291809082 141 152 135
0.4478168785572052 -0.024614376947283745 8.37920093536377 162 178 167
0.4187408685684204 0.19517381489276886 7.796991348266602 144 162 146
-0.26778414845466614 0.2250034660100937 8.441880226135254 145 163 165
-0.08498869091272354 -0.0999661460518837 8.47990608215332 167 174 166
0.08343177288770676 -0.4119986295700073 8.547347068786621 119 132 115
-0.16397856175899506 -0.1946326494216919 8.451237678527832 125 121 109
0.21704106032848358 -0.15647722780704498 8.67827320098877 186 202 189
-0.33694544434547424 -0.2796745300292969 8.417588233947754 182 175 159
0.25101831555366516 -0.34868714213371277 8.6652250289917 213 218 196
-0.2087918221950531 -0.14847658574581146 10.76093864440918 170 184 158
-0.035061828792095184 -0.2232508808374405 8.531432151794434 175 195 167
0.02997307851910591 -0.4781740605831146 10.788323402404785 199 213 196
-0.4177250564098358 0.012307901866734028 10.643386840820312 127 149 162
0.10425163060426712 0.3688293397426605 8.644845962524414 147 163 162
0.38663366436958313 0.012669550254940987 7.460053443908691 169 179 152
0.4663940668106079 0.23146405816078186 8.886148452758789 135 160 167
-0.324934720993042 -0.054256755858659744 8.402381896972656 146 153 145
0.23586110770702362 0.32752111554145813 8.76557445526123 44 55 85
0.04375525936484337 -0.5239147543907166 8.632543563842773 225 236 220
-0.0633116364479065 -0.3026726543903351 8.493057250976562 208 211 192
-0.32966357469558716 0.17559625208377838 8.42780590057373 146 168 156
0.8825698494911194 0.5512402653694153 9.273327827453613 113 96 104
-0.3873141407966614 -0.3060556650161743 11.439618110656738 164 173 154
0.04827306419610977 0.12382005155086517 8.563749313354492 161 168 161
0.9234112501144409 -0.004549223463982344 9.248662948608398 105 87 87
0.09406860917806625 0.15540654957294464 7.090196132659912 155 166 152
0.1476551592350006 -0.4452877640724182 9.195825576782227 159 175 149
0.023154519498348236 0.1051584929227829 8.246051788330078 181 169 153
0.23586110770702362 0.32752111554145813 8.76557445526123 44 55 85
-0.21905262768268585 0.3723200261592865 8.499357223510742 118 123 117
-0.16753068566322327 -0.12422613054513931 8.242518424987793 160 169 164
-0.20994296669960022 -0.07701801508665085 8.43768310546875 116 124 111
0.2961542010307312 0.06838568300008774 8.735459327697754 140 165 159
0.010249880142509937 0.29682913422584534 8.606256484985352 152 171 169
-0.14402911067008972 0.2334771752357483 8.514788627624512 131 147 136
0.0960628017783165 0.36300891637802124 8.680218696594238 147 163 162
0.09812240302562714 -0.5823670029640198 8.680521965026855 200 208 187
-0.20436429977416992 -0.2898763418197632 8.468852043151855 102 103 97
-0.13795563578605652 -0.29206112027168274 8.470787048339844 180 185 162
0.14054752886295319 -0.28360065817832947 10.001291275024414 138 157 163
0.373527467250824 0.11265542358160019 8.753530502319336 147 167 166
0.5998699069023132 0.19702883064746857 8.946791648864746 49 56 74
-0.20994296669960022 -0.07701801508665085 8.43768310546875 116 124 111
0.4256362318992615 0.10898095369338989 7.732442378997803 151 173 161
-0.10856793075799942 -0.0052040377631783485 8.473999977111816 173 183 172
0.027242617681622505 -0.3669072389602661 9.25821590423584 201 213 201
-0.6482342481613159 -0.293247789144516 12.908641815185547 149 168 162
0.215775266289711 -0.22166253626346588 7.155489444732666 182 175 159
-0.24149616062641144 0.20654159784317017 8.455883026123047 146 159 142
-0.3568759858608246 -0.017844203859567642 8.844987869262695 158 170 158
0.5717867612838745 -0.04935304448008537 8.881023406982422 124 119 113
0.08931831270456314 0.2714192867279053 8.643525123596191 154 172 174
-0.06582742184400558 0.22221039235591888 8.52329158782959 127 138 132
-0.08790867775678635 -0.049521420150995255 9.322709083557129 33 46 63
0.022447844967246056 0.1961515247821808 7.715672969818115 198 210 188
-0.22597569227218628 0.6056567430496216 9.141676902770996 51 71 62
-0.29955920577049255 -0.4772891402244568 8.464207649230957 211 222 208
-0.23089751601219177 -0.20509856939315796 8.422554016113281 168 171 160
0.15777496993541718 -0.2895102798938751 8.675006866455078 194 203 182
0.0584743469953537 -0.0816970244050026 8.552375793457031 183 192 173
-0.5790186524391174 -0.23186679184436798 10.49736499786377 83 84 88
-0.22018784284591675 0.41242170333862305 8.506213188171387 119 110 95
0.5032806396484375 -0.37613624334335327 9.515802383422852 131 151 150
-0.10383052378892899 -0.19278889894485474 7.896538734436035 218 225 209
0.3258296251296997 0.318718820810318 8.256180763244629 117 149 160
0.4470345675945282 -0.1082308292388916 8.830326080322266 70 74 59
0.3265974819660187 -0.20979733765125275 8.710710525512695 187 196 179
0.6013604998588562 0.30769631266593933 8.983628273010254 26 47 66
0.8841760158538818 0.45428216457366943 9.329638481140137 98 91 99
-0.09082740545272827 -0.20765744149684906 7.796878814697266 92 102 91
-0.20436429977416992 -0.2898763418197632 8.468852043151855 102 103 97
0.029736680909991264 -0.8870988488197327 8.897799491882324 29 31 30
0.2422894984483719 -0.591441810131073 8.765342712402344 223 242 223
-0.18822741508483887 -0.4317457377910614 8.487154960632324 218 231 211
-0.17297831177711487 -0.21818895637989044 8.467538833618164 82 81 77
0.16422045230865479 0.06990249454975128 8.686322212219238 123 136 127
-0.02378734201192856 0.23577576875686646 8.5823974609375 123 140 124
-0.25553098320961 -0.4896189868450165 8.478540420532227 192 202 178
-0.26952075958251953 -0.204332172870636 8.441341400146484 174 185 171
0.3680638372898102 -0.28449082374572754 8.185068130493164 195 210 189
0.548488438129425 -0.11353066563606262 6.75203275680542 182 180 168
0.21789546310901642 0.026328010484576225 8.645648956298828 121 134 124
-0.04319422319531441 0.39003443717956543 8.579300880432129 142 162 151
0.5838552713394165 -0.17618928849697113 6.262094974517822 109 118 115
-0.04586711525917053 -0.14539703726768494 8.503446578979492 164 178 165
-0.2643256187438965 0.30667102336883545 8.489115715026855 139 152 143
0.12149721384048462 0.005217289552092552 8.584442138671875 180 196 170
0.2903316020965576 0.13131125271320343 8.698168754577637 150 167 157
0.028283847495913506 -0.5255106687545776 8.619416236877441 234 242 229
-0.3041083812713623 0.15526847541332245 10.052833557128906 145 169 173
0.5170913338661194 -0.020920544862747192 7.792110443115234 72 75 68
0.21237361431121826 -0.37935033440589905 8.65030574798584 196 204 183
0.3342268466949463 0.1250220537185669 8.726849555969238 151 175 175
0.5361722707748413 0.4101678133010864 9.00354290008545 112 139 168
-0.8942734599113464 0.06279545277357101 12.17373275756836 142 166 168
0.18217284977436066 -0.5731842517852783 8.719338417053223 129 139 141
0.3311668038368225 0.2429840862751007 6.734109401702881 154 169 166
-0.36504173278808594 0.08019646257162094 9.168627738952637 196 208 194
0.573587954044342 0.04485650733113289 8.892151832580566 54 65 71
0.286908358335495 -0.15735186636447906 9.91110610961914 148 126 115
0.06711467355489731 -0.24127566814422607 8.159401893615723 170 184 158
0.3860585689544678 -0.46006184816360474 8.828275680541992 141 152 135
0.6064425706863403 -0.15214335918426514 7.492841720581055 151 133 111
0.20678970217704773 -0.13024906814098358 8.661434173583984 170 186 173
-0.46149545907974243 -0.3875052332878113 8.408085823059082 177 165 149
0.844106912612915 -0.7078322172164917 9.242623329162598 118 104 104
0.21883194148540497 -0.4618171155452728 8.709619522094727 213 228 207
-0.2799927294254303 -0.061967603862285614 8.425077438354492 125 138 120
-0.26012641191482544 0.10334498435258865 9.763204574584961 90 108 118
0.2684321403503418 0.10782470554113388 8.68284797668457 58 68 60
-0.2125612497329712 -0.09109364449977875 8.37722396850586 156 168 166
0.22477565705776215 -0.3990212082862854 8.660860061645508 95 98 87
-0.01845969632267952 -0.26933279633522034 8.510196685791016 171 180 149
0.5614538192749023 0.014155200682580471 7.5466389656066895 158 171 153
0.24628590047359467 0.3405348062515259 8.773216247558594 132 153 138
0.37920626997947693 0.4167865216732025 8.83643913269043 90 108 122
-0.05804292485117912 0.17755679786205292 8.518189430236816 162 179 160
-0.16641737520694733 -0.1692325621843338 10.659916877746582 96 114 124
0.07314032316207886 -0.27826163172721863 8.556962966918945 171 180 151
0.2775217294692993 -0.38459765911102295 9.082098007202148 58 68 60
-0.03512882813811302 0.08495967090129852 9.842392921447754 160 166 154
-0.1875872164964676 -0.3727169632911682 8.462489128112793 194 199 176
-0.09886637330055237 0.05256235972046852 8.621469497680664 112 135 129
0.013279003091156483 -0.3159230053424835 8.53638744354248 211 219 198
-0.2489437758922577 -0.04684597998857498 8.721611022949219 159 148 126
-0.07840234041213989 -0.0599086694419384 8.486867904663086 162 174 150
0.16680391132831573 -0.5234383940696716 8.655475616455078 211 216 186
0.7646921873092651 0.49867716431617737 9.276849746704102 50 44 44
0.18116845190525055 -0.4543735980987549 8.656044006347656 187 198 168
-0.042996183037757874 0.26818305253982544 8.550600051879883 144 165 166
-0.9813774824142456 -0.3012196719646454 11.648816108703613 200 215 184
0.2181043028831482 -0.3417132496833801 8.650711059570312 206 210 187
1.0309689044952393 -0.28137198090553284 9.285204887390137 128 138 139
0.25904354453086853 -0.29272258281707764 8.666465759277344 202 215 197
0.954077959060669 -0.013209177181124687 9.31026840209961 104 91 85
0.44300296902656555 0.08771806955337524 8.854942321777344 52 50 55
-0.12283395230770111 -0.03459015116095543 8.470109939575195 123 133 108
-0.04933648556470871 0.3075680732727051 10.258587837219238 178 182 167
0.3464007079601288 0.07786178588867188 8.782441139221191 140 132 119
0.36726677417755127 0.2838146984577179 8.787985801696777 90 105 108
-0.3082469701766968 0.06779102236032486 8.418155670166016 152 168 157
-0.3569713532924652 0.07536015659570694 8.561811447143555 106 126 114
0.2911067306995392 -0.27444157004356384 9.552083969116211 178 186 173
-0.21641424298286438 -0.5812847018241882 9.498272895812988 174 187 170
0.5044609904289246 -0.06033598259091377 8.323269844055176 169 182 173
-0.045857783406972885 0.5139365196228027 8.643403053283691 71 72 76
0.5480249524116516 -0.4684101641178131 8.913921356201172 209 187 164
0.044005680829286575 -0.39291101694107056 10.672457695007324 83 89 89
-0.2153417319059372 -0.10915089398622513 8.452652931213379 116 114 99
0.46861395239830017 0.17378924787044525 8.06208610534668 22 50 87
0.015475232154130936 0.6459136009216309 8.714755058288574 73 65 63
0.20748992264270782 -0.42221149802207947 8.347033500671387 174 187 170
-0.3913145661354065 0.3046744763851166 8.4510498046875 135 145 147
-0.570533812046051 0.08367849141359329 11.929871559143066 92 110 130
-0.38295572996139526 0.4455021023750305 8.499750137329102 69 71 60
0.22998110949993134 0.24029900133609772 8.679262161254883 121 145 145
0.008900607004761696 -0.934069812297821 8.945125579833984 58 74 61
0.32803046703338623 -0.1879383772611618 8.704605102539062 162 174 164
0.39627885818481445 -0.23452940583229065 8.80720043182373 156 162 148
-0.12447687238454819 -0.512506902217865 8.551513671875 224 238 223
0.4616425037384033 0.20748399198055267 8.883827209472656 135 154 150
-0.07130511105060577 -0.623111367225647 9.304062843322754 135 146 130
0.5025127530097961 -0.31366729736328125 8.83053207397461 172 178 152
-0.21751509606838226 -0.623528778553009 8.535222053527832 107 117 108
-0.46804672479629517 -0.4155949056148529 9.896262168884277 183 196 186
0.39042380452156067 -0.37280020117759705 8.821141242980957 189 203 178
0.1297387331724167 -0.47147127985954285 8.65792179107666 211 219 196
0.09489331394433975 -0.20680229365825653 8.628067016601562 188 203 182
-0.30719438195228577 0.3797842860221863 8.490938186645508 81 80 76
0.08163492381572723 -0.5700294375419617 8.665453910827637 238 249 232
-0.7021201252937317 -0.22998416423797607 10.283711433410645 172 157 136
-0.06609305739402771 -0.16205807030200958 8.489311218261719 184 198 183
-0.24991440773010254 -0.2543891668319702 8.431791305541992 152 153 137
-0.3913666307926178 0.2289109081029892 8.422450065612793 144 155 141
0.15568342804908752 -0.8121737837791443 8.829753875732422 199 178 157
0.916980504989624 0.3065589368343353 9.27538013458252 84 79 76
0.48123234510421753 0.047748200595378876 8.865903854370117 126 120 104
0.4558204412460327 -0.08543114364147186 8.555987358093262 151 131 107
-0.2533736526966095 -0.5639331936836243 8.505766868591309 207 209 195
-0.0014702263288199902 0.009429867379367352 8.551194190979004 123 130 112
0.6066225171089172 0.023879339918494225 8.337601661682129 173 178 155
0.5671924352645874 0.10464506596326828 8.040440559387207 147 152 132
0.2681158483028412 0.4663117229938507 8.816734313964844 97 118 119
0.27416741847991943 -0.47218087315559387 8.70028305053711 221 233 221
-0.05611016973853111 -0.35034751892089844 9.955769538879395 63 63 55
0.22406485676765442 -0.2570718228816986 8.83614444732666 122 140 144
-0.4841795563697815 0.017790300771594048 8.366894721984863 149 161 149
0.6489644050598145 0.27388501167297363 9.046648025512695 51 64 80
-1.0318009853363037 -0.7576917409896851 13.011846542358398 91 86 83
0.04203508421778679 0.10027775913476944 8.587824821472168 168 182 159
0.015798475593328476 -0.5634804964065552 8.624139785766602 221 231 220
0.8926190733909607 0.617524266242981 9.332531929016113 105 99 109
-0.4789022207260132 0.280484676361084 8.411154747009277 43 47 50
0.8228234648704529 0.6744116544723511 9.319449424743652 49 43 45
-0.02378734201192856 0.23577576875686646 8.5823974609375 123 140 124
0.05898301675915718 -0.11572474986314774 8.54733943939209 168 181 174
0.1437229961156845 -0.7166447639465332 8.781331062316895 229 239 215
-0.46986016631126404 0.06031007692217827 8.37276554107666 115 120 113
0.21340662240982056 0.14530697464942932 8.359596252441406 155 155 147
-0.274958997964859 0.040873508900403976 8.427397727966309 129 138 121
-0.08665258437395096 -0.24118728935718536 8.50195598602295 107 110 89
-0.017684660851955414 -0.6354990601539612 8.632011413574219 226 239 221
0.0021495576947927475 0.04038374125957489 8.5547456741333 118 140 119
0.015981081873178482 -0.5089178681373596 8.56684684753418 122 133 119
-0.12169690430164337 -0.6493945717811584 8.608012199401855 224 241 233
-0.5915990471839905 -0.39215123653411865 10.335565567016602 171 173 162
0.088935986161232 0.49905580282211304 8.686298370361328 119 143 145
-0.36253300309181213 0.3043158948421478 8.45297908782959 131 143 141
0.48167967796325684 -0.7731131315231323 9.125137329101562 55 52 47
0.26891568303108215 0.5559534430503845 8.818937301635742 86 106 113
0.42348867654800415 -0.007156689185649157 9.028595924377441 138 156 170
-0.31406497955322266 0.2521549463272095 10.137544631958008 59 61 60
-0.0024006939493119717 -0.03802713006734848 8.016974449157715 224 241 233
0.20150679349899292 -0.4388546347618103 8.653970718383789 211 221 194
-0.4863380193710327 -0.027826128527522087 8.371627807617188 142 159 149
0.3568543493747711 -0.17141401767730713 7.103949546813965 161 150 128
0.7272365093231201 -0.38397523760795593 9.154356956481934 152 132 97
0.48477643728256226 0.4775402843952179 8.987190246582031 39 39 49
0.4751087725162506 0.05173347517848015 7.207642555236816 142 155 138
-0.274958997964859 0.040873508900403976 8.427397727966309 129 138 121
-0.08692774921655655 0.3333701491355896 8.573472023010254 103 130 125
-0.3581649363040924 -0.05097274109721184 8.390060424804688 157 165 152
0.47222745418548584 0.2882329225540161 8.856982231140137 110 136 149
0.28606659173965454 0.31123754382133484 8.738187789916992 133 147 148
0.29430970549583435 -0.774333655834198 8.971644401550293 192 172 147
-0.15998433530330658 -0.2577473521232605 8.473559379577637 163 173 162
0.04488105699419975 0.8269670009613037 7.979611396789551 39 49 48
-0.3843294680118561 0.20677131414413452 8.430950164794922 83 96 89
0.41078320145606995 -0.805687427520752 9.132301330566406 54 43 49
0.15407951176166534 -0.3725241720676422 8.65656852722168 212 223 209
0.1883028894662857 0.3150455355644226 8.73334789276123 126 154 166
0.24113595485687256 0.5245954990386963 8.784762382507324 88 114 101
-0.12899503111839294 0.13457264006137848 8.522650718688965 154 176 173
0.06974711269140244 0.9887228608131409 9.004441261291504 62 63 47
0.12366098910570145 -0.2250647246837616 8.620099067687988 188 207 188
-0.1796852946281433 -0.13888667523860931 8.460196495056152 55 65 54
0.2600395679473877 0.35310038924217224 8.782984733581543 50 67 75
0.4111146330833435 -0.3361052870750427 8.774412155151367 191 199 178
-0.22435609996318817 0.04797683656215668 9.115130424499512 92 112 111
0.2801327705383301 0.33576318621635437 8.782771110534668 140 153 162
0.4801218509674072 -0.42867451906204224 8.892274856567383 151 142 133
0.021062584593892097 -0.3293474614620209 8.580507278442383 85 93 80
-0.4199112057685852 0.20052921772003174 8.406902313232422 127 139 129
-0.21427872776985168 -0.20618122816085815 8.4468994140625 81 79 67
-0.34587201476097107 -0.11026968061923981 8.390871047973633 76 87 83
-0.17695672810077667 -0.229838028550148 8.484759330749512 82 81 77
0.8674692511558533 0.7745993137359619 9.345513343811035 99 95 118
0.4421168565750122 -0.0891033187508583 8.782686233520508 159 170 156
0.39760392904281616 0.08148086071014404 6.701414108276367 54 56 55
0.42786502838134766 -0.1817612200975418 8.335869789123535 152 160 139
0.1632770448923111 -0.12565740942955017 7.435490608215332 191 206 187
0.07566055655479431 -0.6454001069068909 8.660423278808594 228 245 229
0.48110783100128174 -0.10161344707012177 8.866151809692383 115 113 101
0.45093685388565063 -0.43281295895576477 8.822982788085938 169 178 159
0.5495194792747498 -0.2679292857646942 8.91702651977539 175 162 146
0.05274202674627304 0.15671710669994354 8.57125186920166 158 170 160
0.5219308137893677 0.05846404656767845 8.855504035949707 105 103 104
-0.24010352790355682 -0.5108347535133362 8.236897468566895 169 147 134
0.1316368132829666 -0.28243890404701233 9.448226928710938 46 55 64
-0.12334110587835312 -0.39959365129470825 8.49267578125 175 188 170
0.44515520334243774 -0.0496998205780983 8.789182662963867 165 154 126
-0.2015686333179474 0.03814162686467171 8.441015243530273 123 132 113
0.22575253248214722 -0.0978669598698616 8.641789436340332 166 179 169
-0.2489802986383438 0.10083729028701782 8.464868545532227 135 141 131
0.06040088087320328 0.5394545793533325 10.477243423461914 111 105 83
-0.3971090614795685 0.04283730313181877 9.342464447021484 56 69 60
0.23367923498153687 -0.3632933497428894 8.658370018005371 84 88 91
-0.4395766854286194 0.026280289515852928 8.386131286621094 119 130 124
-0.23571284115314484 0.2214793562889099 8.471650123596191 123 138 131
-0.04450056701898575 -0.40186211466789246 8.52405071258545 201 213 191
-0.18667320907115936 -0.24644531309604645 8.47498607635498 78 86 75
-0.32304123044013977 0.21721605956554413 8.437702178955078 150 168 156
0.8458415865898132 0.8837777972221375 9.328038215637207 110 104 108
0.45743775367736816 -0.27592045068740845 8.841415405273438 173 186 158
0.1330224573612213 0.3391541540622711 7.435742378234863 162 179 163
0.0347161740064621 -0.07153626531362534 8.593295097351074 56 69 60
-0.25319287180900574 -0.3037523925304413 8.470605850219727 77 79 66
0.5070738792419434 0.2131844460964203 8.917551040649414 149 165 165
0.35920631885528564 -0.7973842024803162 8.992100715637207 177 153 143
0.4927085041999817 -0.34548571705818176 8.882085800170898 166 174 153
0.41231927275657654 -0.03076016902923584 8.765558242797852 123 103 94
-0.3474878966808319 -0.19016028940677643 8.390925407409668 109 97 83
0.5977794528007507 0.22212883830070496 8.962634086608887 139 163 173
0.5291744470596313 -0.41531628370285034 8.938461303710938 185 173 149
0.12336365133523941 -0.32906395196914673 7.279253005981445 201 180 163
0.11925385892391205 -0.6669262051582336 8.687797546386719 210 222 202
-0.03417046740651131 0.9752148389816284 8.98420238494873 55 65 57
-0.01000102236866951 -0.49315527081489563 8.58892822265625 225 239 222
0.5779925584793091 0.3805016875267029 8.992138862609863 34 57 73
0.37248021364212036 -0.3862915337085724 8.772950172424316 217 229 217
0.10593515634536743 -0.07560508698225021 8.243642807006836 175 177 156
0.5629147887229919 0.5479344725608826 9.101595878601074 76 102 119
0.7195582389831543 -0.18400998413562775 9.01748275756836 135 109 92
0.01895712874829769 -0.1284434199333191 8.52507209777832 183 196 186
0.4497755467891693 -0.16032852232456207 8.789652824401855 64 67 60
-0.4140477776527405 0.22733651101589203 8.413393020629883 137 147 136
0.55852872133255 -0.6667979955673218 9.181685447692871 66 55 51
0.20002828538417816 0.057119619101285934 8.676210403442383 148 162 149
-0.13274821639060974 0.6378912925720215 10.6534423828125 169 178 159
0.6477163434028625 -0.20797565579414368 9.00313663482666 92 79 71
0.29414838552474976 0.07637720555067062 9.447115898132324 49 53 65
-0.22386489808559418 -0.272585391998291 8.430732727050781 180 183 172
-0.3355935215950012 -0.1003594622015953 8.41385555267334 154 159 152
0.47036582231521606 -0.7416064143180847 9.141388893127441 55 52 47
0.047170013189315796 -0.07964058965444565 8.604046821594238 183 192 173
-0.08431262522935867 -0.35203081369400024 9.418639183044434 143 151 140
-0.30381453037261963 -0.6103312373161316 8.515081405639648 99 89 88
0.596162736415863 -0.4067290127277374 8.866866111755371 48 44 43
0.5735262036323547 -0.2864079773426056 8.882112503051758 144 125 110
-0.13711285591125488 -0.3216852843761444 9.123540878295898 158 163 141
0.5456071496009827 0.19335968792438507 8.896492004394531 147 169 167
0.4494231045246124 0.01016317680478096 6.878819942474365 174 167 149
-0.03484862670302391 0.10365002602338791 9.082613945007324 163 176 158
-0.3769207000732422 0.3436543941497803 8.463452339172363 77 83 83
-0.16557301580905914 -0.0785764679312706 8.454936027526855 76 89 82
-0.3778460919857025 0.2507953941822052 9.735756874084473 105 112 105
-0.4230300486087799 -0.5884761214256287 8.4854097366333 205 187 165
-0.22758464515209198 -0.07626212388277054 8.424515724182129 117 117 107
0.19827157258987427 -0.013364986516535282 8.664026260375977 126 130 107
0.09833775460720062 -0.31708937883377075 7.4648003578186035 139 150 146
0.28727272152900696 -0.09622026979923248 8.423600196838379 167 175 160
0.4198751151561737 -0.1743468940258026 8.833724975585938 158 171 153
0.32803046703338623 -0.1879383772611618 8.704605102539062 162 174 164
-0.01845969632267952 -0.26933279633522034 8.510196685791016 171 180 149
-0.1843600571155548 -0.21079692244529724 8.47727108001709 62 59 52
-0.42742300033569336 0.3073715269565582 8.438131332397461 154 161 154
0.5642358064651489 -0.42589816451072693 8.965189933776855 121 104 86
-0.2825969159603119 -0.15634498000144958 8.125486373901367 157 160 143
0.6279937624931335 -0.37494534254074097 7.548756122589111 49 49 47
0.6347203254699707 0.07296355068683624 8.958024024963379 38 37 45
-0.30991071462631226 -0.2544412314891815 8.428072929382324 160 166 154
-0.18667320907115936 -0.24644531309604645 8.47498607635498 78 86 75
-0.14475581049919128 0.8209114670753479 8.565308570861816 56 54 55
0.469686895608902 0.4893537163734436 8.49271011352539 22 50 87
0.29938381910324097 0.5142407417297363 8.819786071777344 113 125 113
0.12646770477294922 0.5438946485519409 8.722609519958496 112 118 116
-0.19603361189365387 0.2743559777736664 8.48513412475586 112 119 103
0.4443642199039459 -0.7347553968429565 9.062569618225098 191 196 174
0.5753665566444397 -0.5414699912071228 8.964797019958496 168 152 126
-0.49735158681869507 -0.21506474912166595 8.365396499633789 185 188 169
-0.416393518447876 0.13059163093566895 8.389608383178711 143 158 151
-0.6036903858184814 -0.06009704992175102 9.182337760925293 87 83 72
-0.23497463762760162 -0.12014596164226532 8.417973518371582 132 116 100
-0.1402473896741867 -0.1264873892068863 8.461389541625977 120 105 86
0.20388107001781464 -0.5292029976844788 8.718683242797852 228 237 220
0.5066035985946655 0.4853438138961792 8.993629455566406 25 45 56
0.41762661933898926 0.4268788695335388 7.920074462890625 111 132 151
0.7543025016784668 -0.08018084615468979 8.464768409729004 147 169 167
0.5676891803741455 0.44869205355644226 9.041007041931152 95 124 154
0.07716639339923859 -0.5527854561805725 8.654248237609863 193 202 173
-0.2489802986383438 0.10083729028701782 8.464868545532227 135 141 131
-0.25483471155166626 -0.4060322940349579 11.270548820495605 191 198 182
-0.36368244886398315 -0.15417321026325226 10.0598783493042 136 108 97
0.6486842036247253 0.09321868419647217 8.999839782714844 127 128 114
-0.03985150530934334 0.1937679499387741 8.53085994720459 148 166 168
0.1350005716085434 -0.5820299386978149 8.659366607666016 220 232 210
0.22233827412128448 0.2228565365076065 8.674805641174316 150 173 167
0.45972201228141785 0.41239747405052185 8.89599323272705 65 75 87
-0.1355580985546112 -0.6194265484809875 8.561921119689941 230 241 227
0.5504974126815796 0.6663808822631836 9.16788387298584 46 58 70
0.4457005262374878 -0.23769216239452362 8.83315372467041 168 180 160
0.31393250823020935 -0.4648412764072418 8.731389045715332 206 226 215
-0.10611952841281891 -0.3605930805206299 8.506855010986328 183 190 159
0.414999783039093 0.44228872656822205 8.905921936035156 67 64 81
-0.02701536938548088 -0.04080871120095253 8.524435043334961 124 139 120
0.10594408214092255 0.1611310839653015 10.232718467712402 21 34 43
0.4702666103839874 0.12715379893779755 8.166915893554688 38 46 59
0.26892104744911194 -0.1149517074227333 8.705143928527832 159 175 149
-0.19603361189365387 0.2743559777736664 8.48513412475586 112 119 103
-0.1428837925195694 -0.1605023443698883 8.498015403747559 118 101 85
-0.42523422837257385 -0.5489951968193054 8.480918884277344 137 113 111
-0.039857715368270874 0.31477707624435425 8.050220489501953 51 67 66
0.614277720451355 -0.24444738030433655 8.978239059448242 101 89 75
-0.07477825880050659 0.3167809844017029 8.588401794433594 115 128 118
-0.6372559666633606 -0.20423245429992676 12.354891777038574 101 121 122
0.6774489879608154 0.5102272629737854 9.20875358581543 75 81 79
0.008805222809314728 -0.5001280903816223 8.601312637329102 122 133 119
-0.04286814108490944 -0.44884657859802246 8.466204643249512 181 189 165
-0.30747219920158386 0.18874897062778473 8.444572448730469 74 87 78
0.32712823152542114 -0.9417352676391602 9.123876571655273 97 78 71
0.736865222454071 0.06510010361671448 9.12238883972168 115 111 99
-0.4299955666065216 -0.19471240043640137 8.371091842651367 153 138 117
0.6060317754745483 0.09202826023101807 8.923202514648438 136 135 115
-0.19882835447788239 -0.25926727056503296 8.440457344055176 83 90 74
0.5722394585609436 -0.3858593702316284 8.91417121887207 49 49 47
-0.11825624853372574 0.39100828766822815 7.274820804595947 54 63 60
0.4830296039581299 -0.4465040862560272 8.893896102905273 151 142 133
0.7462455034255981 -0.18164481222629547 9.06352710723877 114 99 78
-0.5245943069458008 0.28703293204307556 8.426301002502441 129 147 149
-0.3395245373249054 -0.41963329911231995 10.516182899475098 57 60 69
0.9506537914276123 0.6903994679450989 9.459344863891602 116 141 145
0.5997079014778137 0.04741498827934265 8.969761848449707 142 143 145
0.4123927652835846 0.48500144481658936 8.895598411560059 31 44 50
0.4006292223930359 0.03317704051733017 8.791425704956055 100 89 83
0.5076197981834412 0.432247132062912 8.997537612915039 93 129 155
0.11017236113548279 -0.010390630923211575 8.572402954101562 137 149 135
0.21902257204055786 -0.5288731455802917 8.685347557067871 221 236 217
0.6373642683029175 -0.17224176228046417 8.943867683410645 54 54 54
0.4263077974319458 0.3348560035228729 8.852078437805176 127 145 159
0.3055296838283539 -0.4392801523208618 8.765517234802246 206 226 215
-0.493794322013855 -0.25473305583000183 8.383546829223633 167 145 131
0.08357471227645874 0.5300771594047546 8.69501781463623 45 52 60
0.6287751197814941 0.2529888153076172 8.988945960998535 123 138 143
0.13840262591838837 0.09458406269550323 8.649870872497559 112 121 116
0.12970669567584991 1.0694880485534668 9.03508472442627 86 86 74
0.059188663959503174 0.3507598042488098 8.653164863586426 49 61 85
-0.0939185842871666 0.04936958849430084 10.076982498168945 187 197 170
0.1902427226305008 -0.5164527297019958 8.70209789276123 122 130 117
0.3022473454475403 0.06349322944879532 9.874443054199219 133 137 123
0.10424294322729111 1.0570220947265625 9.002684593200684 32 45 35
0.36457809805870056 -0.5861223936080933 8.806981086730957 157 163 153
0.7180138826370239 -0.4675910174846649 9.218966484069824 58 46 48
0.40208378434181213 0.5090301632881165 8.934796333312988 29 36 44
-0.11322053521871567 -0.3523636758327484 8.325873374938965 108 124 121
0.44297611713409424 -0.5502185225486755 8.917675018310547 208 218 194
-0.38434940576553345 -0.408270925283432 8.424619674682617 174 148 125
0.6670565009117126 -0.3332180380821228 9.045886039733887 159 131 107
-0.16718807816505432 -0.12289661169052124 8.487398147583008 142 128 115
0.7314355373382568 0.10158473253250122 9.1162109375 125 111 102
0.7010100483894348 -0.12644556164741516 8.987333297729492 81 71 69
-0.0582457073032856 0.16789628565311432 8.209638595581055 129 134 130
0.6548730134963989 -0.6432918906211853 9.210467338562012 75 61 60
0.7973771095275879 -0.7216751575469971 9.232786178588867 130 110 109
0.21789546310901642 0.026328010484576225 8.645648956298828 121 134 124
0.6858354806900024 -0.3721155822277069 6.703415870666504 218 235 217
0.5478817224502563 0.4893764555454254 9.04173469543457 102 123 128
0.5271850824356079 0.4529503285884857 9.02242374420166 98 129 157
0.04603472352027893 -0.6445838809013367 8.637038230895996 204 214 203
-0.1649007946252823 0.3963300287723541 8.555745124816895 117 127 119
-0.3017466068267822 0.32674258947372437 8.475004196166992 132 142 143
-0.0806836262345314 -0.7859643697738647 8.72579288482666 219 231 209
-0.027269728481769562 0.022627364844083786 8.539703369140625 131 140 121
0.7816636562347412 -0.8571065664291382 9.17831802368164 99 75 75
-0.4191854000091553 0.1475505530834198 8.409529685974121 108 126 114
0.8654529452323914 0.8545692563056946 9.308146476745605 95 93 117
-0.4664689898490906 -0.04432535916566849 8.371108055114746 77 90 81
-0.07681542634963989 0.5333797931671143 8.610579490661621 79 68 62
0.6720913648605347 -0.8735235333442688 9.165565490722656 130 111 97
0.18884073197841644 -0.26326245069503784 8.658506393432617 199 210 193
0.7103460431098938 -0.1344183087348938 9.025464057922363 86 71 76
-0.5807265043258667 -0.20900322496891022 8.366453170776367 85 87 84
0.39788928627967834 0.06994402408599854 8.800628662109375 143 126 108
-0.5649461150169373 0.2538225054740906 8.388825416564941 135 155 146
0.021062584593892097 -0.3293474614620209 8.580507278442383 85 93 80
0.46063339710235596 0.614673376083374 9.0000581741333 59 62 77
0.23488441109657288 0.003188112750649452 8.684727668762207 148 163 160
-0.23274682462215424 -0.651696503162384 8.566092491149902 222 202 195
0.6754564642906189 -0.4008188545703888 9.076237678527832 170 142 128
0.43641191720962524 0.3463920056819916 8.894186973571777 31 46 67
0.08279130607843399 0.9142531752586365 8.986054420471191 43 47 48
0.03169054538011551 -0.3776206374168396 8.581518173217773 220 225 203
0.6451146602630615 -0.8928524255752563 9.177787780761719 99 68 63
-0.3865709900856018 0.36730271577835083 8.463154792785645 99 107 86
-0.07993213832378387 -0.2372579574584961 8.52742862701416 160 165 145
0.4846758246421814 0.5761210918426514 9.047950744628906 28 37 52
-0.1360391527414322 1.144939661026001 9.02099609375 90 88 63
0.2161155641078949 0.5750599503517151 8.840619087219238 74 96 94
-0.17283713817596436 -0.887843668460846 8.909842491149902 26 30 33
0.39402854442596436 0.30289217829704285 9.38725757598877 148 125 109
-0.4889540672302246 -0.2349596917629242 8.381903648376465 75 76 71
0.22660544514656067 -0.5597383975982666 8.735422134399414 228 239 222
0.14299482107162476 -0.21041114628314972 8.597846984863281 169 179 152
0.6328105330467224 0.02752082608640194 8.99048137664795 62 58 49
-0.14414365589618683 -0.7245636582374573 8.616722106933594 151 155 156
0.13840262591838837 0.09458406269550323 8.649870872497559 112 121 116
-0.2244071662425995 0.26586830615997314 8.495014190673828 136 149 139
-0.3691907823085785 -0.14242786169052124 8.38538932800293 162 175 166
0.37993866205215454 0.22173620760440826 8.823241233825684 141 159 161
-0.33170512318611145 -0.13162408769130707 8.401472091674805 164 171 153
0.5359145998954773 -0.9903470277786255 9.105733871459961 125 101 99
0.7309702038764954 0.28493693470954895 7.140393257141113 84 105 106
0.16038744151592255 -0.24154552817344666 8.64572525024414 191 209 193
0.34797707200050354 -0.5513670444488525 8.825224876403809 132 143 139
0.3945087790489197 0.2569076418876648 8.793746948242188 98 122 126
0.39268267154693604 -0.36493247747421265 7.539656639099121 205 219 202
0.3405432403087616 0.5743620991706848 8.927659034729004 38 40 52
0.7492142915725708 0.3424665927886963 9.212021827697754 94 90 87
0.4249347746372223 -0.3460567891597748 8.783413887023926 122 127 104
-0.07667525112628937 0.355349600315094 8.985243797302246 84 75 78
0.36632803082466125 0.4966750144958496 8.768073081970215 61 66 70
-0.41264721751213074 0.024348601698875427 8.378849983215332 113 122 117
-0.5151531100273132 -0.1791330724954605 8.358046531677246 129 136 120
-0.36152219772338867 0.25440701842308044 8.45348834991455 133 149 146
0.46724992990493774 -0.8189186453819275 9.095699310302734 102 86 87
0.6663447618484497 -0.39830338954925537 9.000773429870605 163 131 110
0.3715706169605255 0.2394368052482605 8.78381061553955 110 120 121
0.5987825989723206 -0.24983008205890656 8.962389945983887 150 129 112
0.5822418928146362 0.3243447542190552 8.973855972290039 119 133 133
-0.06571492552757263 0.4629051685333252 8.588693618774414 105 99 87
0.4310140013694763 -0.6625881195068359 8.967141151428223 151 157 143
-0.4175907075405121 -0.07856561243534088 9.974010467529297 162 180 168
-0.5975043177604675 0.26003703474998474 8.382189750671387 144 162 162
0.4870759844779968 0.6716744899749756 9.071115493774414 30 35 38
-0.33569756150245667 -0.23854771256446838 10.338695526123047 125 133 135
0.6562484502792358 -0.1776302605867386 6.855976104736328 82 64 60
-0.02344527468085289 -0.647526204586029 8.645694732666016 239 251 239
0.7721619606018066 0.1674497425556183 9.172966003417969 93 84 87
0.1330026090145111 -0.7642874717712402 8.754681587219238 156 159 150
-0.04813240468502045 0.35322967171669006 8.563165664672852 136 158 155
0.4338635206222534 -0.13753996789455414 8.780109405517578 166 174 159
-0.3319902718067169 -0.08039059489965439 9.825512886047363 109 121 117
-0.3562503159046173 0.5672022104263306 8.567152976989746 55 67 65
0.1486741602420807 1.0980873107910156 9.024211883544922 25 31 29
-0.20071397721767426 -0.6543861627578735 8.581413269042969 240 244 230
-0.047560207545757294 0.009498302824795246 10.576035499572754 46 44 57
-0.029743019491434097 -0.18340417742729187 8.495552062988281 161 166 146
-0.2878851890563965 -0.5652058124542236 8.507309913635254 203 184 167
-0.6311988234519958 -0.09577493369579315 8.353524208068848 123 105 95
0.22266697883605957 0.3116266429424286 8.741758346557617 130 159 165
0.7669316530227661 0.9437333345413208 9.299348831176758 58 44 43
0.7989188432693481 0.07391637563705444 9.176559448242188 117 93 93
-0.4235273003578186 -0.3401872515678406 8.395781517028809 197 169 148
0.6427059173583984 0.11905288696289062 9.001435279846191 126 114 116
0.07710444182157516 -0.14940573275089264 9.514178276062012 145 159 146
0.36802172660827637 0.2595234811306 8.783416748046875 151 169 169
0.8087453246116638 -0.6986703276634216 9.194642066955566 100 70 68
-0.1672079712152481 1.049966812133789 8.997127532958984 145 137 116
0.143593892455101 0.6843627691268921 8.797175407409668 67 63 62
-0.3627103269100189 0.06501863896846771 8.409707069396973 135 137 132
0.24204158782958984 0.13707298040390015 8.72702693939209 148 164 151
0.3921149671077728 0.6548589468002319 9.021666526794434 52 52 76
0.3093518018722534 -0.005911665037274361 8.748921394348145 147 156 151
0.4662473797798157 0.2806478440761566 8.893241882324219 110 136 149
-0.19849419593811035 0.26893723011016846 9.854022026062012 16 15 20
-0.10252272337675095 -0.2794714570045471 9.556528091430664 147 149 144
-0.25420892238616943 0.5584146976470947 8.661757469177246 78 62 49
0.573383629322052 -0.4901343286037445 8.93886661529541 176 161 140
0.21116922795772552 -0.5598699450492859 8.692830085754395 228 237 220
0.6106915473937988 -0.3983686864376068 9.004714012145996 170 142 118
0.1339586079120636 0.17459271848201752 8.616490364074707 157 173 170
-0.3513159155845642 -0.24545690417289734 8.390467643737793 68 68 70
0.09840978682041168 -0.23143909871578217 9.382019996643066 151 161 162
-0.16105204820632935 -0.26004379987716675 8.456096649169922 182 180 168
0.21140983700752258 0.13646522164344788 9.927967071533203 85 60 53
0.16765883564949036 0.16263554990291595 8.680251121520996 135 160 157
0.7662404775619507 0.9437075257301331 9.301587104797363 58 44 43
0.10710140317678452 0.5274233222007751 8.709917068481445 43 53 55
-0.4464876055717468 0.19698156416416168 10.905888557434082 104 85 78
0.5657231211662292 -0.2168785184621811 8.917988777160645 118 101 81
0.80937260389328 0.09139688313007355 9.195833206176758 37 37 45
-0.45990461111068726 -0.06706582009792328 8.363043785095215 145 155 144
0.30072885751724243 -0.7053773999214172 8.841691017150879 147 154 146
0.5396284461021423 0.11143645644187927 8.573555946350098 186 194 170
-0.4889540672302246 -0.2349596917629242 8.381903648376465 75 76 71
0.7344560623168945 0.9355048537254333 9.32550048828125 74 58 61
0.16057801246643066 -1.0249159336090088 8.987870216369629 102 82 83
0.6218633055686951 -0.2080875188112259 6.2477288246154785 170 155 134
-0.4725353717803955 0.4191943407058716 8.44573974609375 76 87 81
0.6009112000465393 -0.22639980912208557 8.97069263458252 160 148 136
0.4478168785572052 -0.024614376947283745 8.37920093536377 79 68 64
-0.570533812046051 0.08367849141359329 11.929871559143066 73 99 96
0.14824527502059937 -0.03283417224884033 8.65887451171875 139 148 121
-0.35245734453201294 -0.37602347135543823 10.28051471710205 172 178 166
-0.11415889114141464 -0.9258256554603577 8.910025596618652 75 82 88
0.530072033405304 -0.551807165145874 8.993109703063965 176 168 147
0.17374315857887268 1.0670113563537598 9.010251998901367 63 64 58
0.41293948888778687 0.24462826550006866 8.857453346252441 111 133 130
0.7648430466651917 -0.4298568367958069 9.17538833618164 58 42 45
-0.2489802986383438 0.10083729028701782 8.464868545532227 135 141 131
0.7190632820129395 -0.7025765180587769 8.866655349731445 74 63 59
-0.12046126276254654 0.3511226773262024 8.563698768615723 112 128 118
-0.09187287092208862 0.19709709286689758 9.171667098999023 54 47 41
0.6155534982681274 0.09371460974216461 8.983509063720703 136 120 105
0.30416595935821533 -0.20379190146923065 8.730582237243652 165 177 157
0.5712094902992249 -0.11648552864789963 8.913860321044922 136 123 104
0.358630508184433 -0.0784970372915268 8.786588668823242 162 164 161
0.16738662123680115 -0.2904207110404968 7.63919734954834 225 219 203
0.5219575762748718 0.37601205706596375 8.799491882324219 66 93 112
-0.44801196455955505 1.1110697984695435 8.57435417175293 141 105 83
0.8389127254486084 -0.4145665168762207 9.202714920043945 82 61 60
-0.2895863652229309 -0.5574981570243835 8.496671676635742 216 199 181
0.5076197981834412 0.432247132062912 8.997537612915039 93 129 155
0.22584949433803558 0.060260552912950516 8.691181182861328 110 121 117
-0.41915422677993774 -0.19889241456985474 9.19083023071289 166 168 157
-0.2545097768306732 0.44191494584083557 8.531909942626953 101 95 81
-0.36064013838768005 0.3744827210903168 8.468950271606445 105 107 96
0.6995941996574402 -0.677733838558197 9.141755104064941 100 79 78
-0.0907226949930191 0.4658026099205017 8.604851722717285 89 83 69
0.5935530066490173 0.15120829641819 8.147316932678223 98 112 121
-0.2489437758922577 -0.04684597998857498 8.721611022949219 110 123 103
0.16805894672870636 -0.2633635997772217 8.645954132080078 165 177 155
0.22823944687843323 -0.025453690439462662 9.322249412536621 166 174 159
0.6118529438972473 -0.01635347120463848 8.915051460266113 104 89 68
0.13836562633514404 0.8110690116882324 9.48153018951416 35 33 34
0.02991153486073017 0.6808761358261108 8.739550590515137 37 40 47
-0.06208466365933418 0.5644909143447876 8.614657402038574 71 61 62
