ply
format ascii 1.0
element vertex 698
property float x
property float y
property float z
property uchar red
property uchar green
property uchar blue
end_header
-0.3634850084781647 1.4780545234680176 7.960719108581543 117 132 127
-0.2906995713710785 1.8519331216812134 7.3991875648498535 166 174 176
0.11043019592761993 -0.32100480794906616 7.916998863220215 71 75 60
0.05548257380723953 -0.9203349947929382 8.469639778137207 41 45 80
-0.17662416398525238 0.052460331469774246 8.114236831665039 78 76 77
0.7756631970405579 0.09910895675420761 8.140652656555176 120 136 125
-0.037447359412908554 -0.43368640542030334 8.051796913146973 138 128 153
0.4147886037826538 -0.59352046251297 8.043009757995605 135 126 155
-0.7456594109535217 1.4620946645736694 7.892880916595459 95 70 73
0.02122591622173786 0.03241967782378197 7.988439559936523 109 123 110
-0.5381205081939697 -0.6623007655143738 8.927057266235352 61 46 65
-0.1860407292842865 0.03226486220955849 8.119023323059082 118 139 132
-0.20463666319847107 0.2771832346916199 8.332864761352539 128 119 114
-0.4029522240161896 1.324768304824829 8.056014060974121 176 186 162
0.3378932774066925 0.2969307005405426 8.120159149169922 77 79 78
0.7775996327400208 -0.2314206212759018 8.05076789855957 51 71 104
0.20536397397518158 1.8344159126281738 7.227851390838623 145 154 151
-0.20256055891513824 0.2032056301832199 8.248717308044434 68 96 135
-0.20232433080673218 0.06644103676080704 8.144646644592285 115 108 98
0.2898746132850647 -0.904411256313324 8.560439109802246 190 204 191
0.06169724464416504 0.1595257967710495 8.045933723449707 113 97 97
0.1874692589044571 0.27821776270866394 8.078546524047852 98 117 113
0.6727111339569092 0.8422513604164124 8.884889602661133 143 156 149
1.0629256963729858 0.7287673354148865 8.734404563903809 174 197 187
-1.0910632610321045 1.8704978227615356 7.715137958526611 169 168 182
0.40560615062713623 1.7246010303497314 7.124661445617676 192 201 230
-0.30160513520240784 1.588827133178711 7.525374412536621 178 198 186
0.3451134264469147 1.5163377523422241 7.578577995300293 178 191 165
-0.10607413947582245 -0.24039921164512634 8.02543830871582 157 150 142
-0.6767704486846924 -0.7419923543930054 8.934282302856445 20 17 24
0.12488506734371185 -0.4410246014595032 7.958160877227783 81 92 114
0.44293212890625 0.3890809714794159 8.221437454223633 43 54 50
0.4320787489414215 -0.3560734987258911 7.926327228546143 38 46 48
-0.06029844284057617 1.9163650274276733 7.326669692993164 44 45 50
-0.1747933328151703 1.6359367370605469 7.394347190856934 168 170 159
-0.6373232007026672 -0.314397931098938 9.054839134216309 152 174 187
0.03042352944612503 0.3981097638607025 8.278558731079102 51 44 52
0.9719151854515076 -0.5702263116836548 8.394997596740723 67 78 124
0.5311587452888489 1.5376081466674805 7.654454231262207 168 140 126
-0.1922954022884369 -0.0042120772413909435 8.108010292053223 50 59 58
-0.12717756628990173 1.6237621307373047 7.4566755294799805 151 155 154
0.1860639452934265 1.1604923009872437 7.476864337921143 134 135 127
0.05631803721189499 1.629498839378357 7.395301818847656 194 210 200
-0.011879364028573036 0.018072931095957756 8.023639678955078 153 167 152
-0.8269669413566589 1.4037998914718628 7.899224281311035 200 207 189
-0.6551883220672607 -0.5973766446113586 8.979863166809082 227 240 233
-1.3559259176254272 1.796615481376648 7.78810453414917 145 143 118
1.0338718891143799 -0.8144404888153076 8.295429229736328 116 126 128
0.5308385491371155 1.344547152519226 8.079015731811523 129 139 140
-0.21727219223976135 0.5674887895584106 9.125272750854492 143 151 153
0.5784240365028381 0.07395526766777039 7.9961748123168945 168 152 136
0.04986817389726639 1.1682394742965698 7.470488548278809 205 217 239
-0.8759940266609192 1.5283809900283813 7.810107231140137 153 158 162
-0.2922056317329407 -0.8610292673110962 8.762346267700195 197 207 206
-0.44359728693962097 1.5278300046920776 7.806458473205566 119 139 140
0.15865588188171387 0.29696884751319885 8.116903305053711 68 52 52
-0.5266209244728088 0.4603765308856964 9.196526527404785 52 51 69
-0.30114224553108215 1.574031949043274 7.539551258087158 86 86 86
-0.04570554941892624 0.05212601646780968 8.042080879211426 106 96 104
-0.08280789852142334 0.5053725242614746 8.888181686401367 176 192 182
-0.9443817734718323 1.5124541521072388 7.81917667388916 121 146 166
0.40148988366127014 -0.07464105635881424 7.916574478149414 158 169 165
-0.9590097665786743 1.2352532148361206 8.347699165344238 181 181 169
0.786544144153595 -0.9656372666358948 8.373767852783203 158 221 255
0.23412975668907166 0.46497902274131775 8.293289184570312 120 118 139
-0.49008581042289734 0.4463300108909607 9.195823669433594 183 195 217
0.5580697655677795 -0.07054344564676285 7.946347713470459 35 40 69
1.0063575506210327 0.6375275254249573 8.70899772644043 140 123 133
0.18141287565231323 1.6732209920883179 7.304581642150879 124 111 118
-0.2567234933376312 1.8684245347976685 7.400885105133057 168 177 182
0.4482386112213135 1.6000522375106812 7.46675443649292 137 157 158
-0.6436678767204285 -0.18316620588302612 9.090627670288086 32 40 61
0.8061138987541199 1.0440423488616943 8.867027282714844 153 169 159
0.8845646977424622 -0.8197681903839111 8.369488716125488 91 117 132
0.7679122090339661 -0.06497005373239517 8.061766624450684 22 57 125
-0.08776886761188507 -0.02621270716190338 8.03339672088623 138 121 129
0.7792293429374695 -0.8584740161895752 8.38941764831543 61 69 115
0.7353515625 -0.8739209771156311 8.419527053833008 62 63 58
-0.523027241230011 0.3738592565059662 9.19511890411377 67 71 82
0.6954866051673889 -0.43989646434783936 8.04834270477295 78 58 47
1.0411245822906494 -0.6451164484024048 8.387467384338379 57 55 56
-0.6645164489746094 1.5708622932434082 7.607007026672363 123 115 112
-0.2903043031692505 -0.7892653346061707 8.829423904418945 149 155 151
-0.2177494764328003 1.7218360900878906 7.31072473526001 50 53 58
-0.1747933328151703 1.6359367370605469 7.394347190856934 166 154 140
0.026118021458387375 0.16198906302452087 8.057326316833496 188 197 176
0.3533034026622772 1.3618812561035156 7.535576820373535 120 116 130
0.4261223375797272 1.5301905870437622 7.667359828948975 32 40 53
1.053697109222412 -0.7947102785110474 8.325738906860352 46 54 65
0.9324483871459961 0.9446972012519836 8.842184066772461 57 97 133
0.35077741742134094 0.13868257403373718 7.99191951751709 228 241 232
0.12321639060974121 -0.20307514071464539 7.928488254547119 176 168 165
0.8493712544441223 -0.3738160729408264 8.13761043548584 138 126 148
0.6017506718635559 1.610787034034729 7.569024562835693 60 94 121
-0.045103173702955246 0.2209160029888153 8.118770599365234 32 55 86
-0.0005756380851380527 1.8263834714889526 7.298925399780273 155 174 168
0.8729890584945679 0.006324656307697296 8.206789016723633 88 105 113
0.6908132433891296 1.5050979852676392 7.799649715423584 87 102 109
0.6503057479858398 1.4458537101745605 7.856940269470215 65 70 73
0.7900150418281555 0.2627253234386444 8.302833557128906 124 138 125
-0.29815927147865295 -0.9724009037017822 8.738210678100586 184 197 180
-0.06433678418397903 1.599017858505249 7.460733890533447 90 88 75
0.6023591160774231 -0.27592936158180237 7.9528422355651855 112 101 109
0.563755452632904 1.3775585889816284 8.006061553955078 179 173 161
-0.19481869041919708 1.4862700700759888 7.765259742736816 141 132 159
-0.09954120218753815 1.6107479333877563 7.463403224945068 99 107 94
-1.4365234375 1.861047387123108 7.889713764190674 36 59 65
-0.35874098539352417 -0.8470645546913147 8.811278343200684 121 151 175
-0.12118793278932571 0.9220045804977417 8.373505592346191 51 57 55
0.7371131777763367 -0.03333146125078201 8.033660888671875 164 176 190
0.21847809851169586 0.3822258412837982 8.145520210266113 163 170 162
-0.12905453145503998 0.09886587411165237 8.09994125366211 152 164 160
-0.12371467798948288 0.08472145348787308 8.07980728149414 72 81 148
-0.4938880205154419 0.6083553433418274 9.230280876159668 115 106 107
0.324918270111084 0.26503700017929077 8.043581008911133 43 51 64
0.324918270111084 0.26503700017929077 8.043581008911133 100 88 108
0.9046754240989685 -0.780953049659729 8.379881858825684 101 104 137
0.2280905842781067 0.18430817127227783 8.001363754272461 186 212 249
0.5804949402809143 1.7633793354034424 7.422544002532959 64 74 86
0.18646860122680664 0.30844366550445557 8.121460914611816 166 174 176
0.7914953231811523 -1.0017731189727783 8.35689640045166 103 117 120
-0.6199760437011719 -0.4485478103160858 9.024391174316406 90 81 84
0.5364199280738831 -0.6437106728553772 8.121637344360352 128 138 130
0.15609988570213318 0.01082596741616726 7.942953586578369 24 45 108
-0.5716556906700134 -0.6403073668479919 8.939324378967285 153 168 197
0.5971316695213318 0.8620043992996216 8.907940864562988 153 169 185
0.8729966878890991 -0.9422099590301514 8.340106964111328 44 53 60
-0.17691108584403992 -0.2688198983669281 8.091403007507324 189 175 162
-0.8271047472953796 1.5667668581008911 7.6907525062561035 238 250 246
0.7733672857284546 -0.035104215145111084 8.075200080871582 108 100 115
-0.5632609724998474 1.6295357942581177 7.5240302085876465 228 245 239
-0.5501542687416077 -0.9616658091545105 8.835592269897461 111 170 114
0.6540467143058777 -0.8865901827812195 8.442095756530762 142 145 126
0.18462300300598145 1.4454573392868042 7.4657440185546875 108 142 167
0.9324483871459961 0.9446972012519836 8.842184066772461 86 75 79
0.47673872113227844 1.5680919885635376 7.5401153564453125 143 147 150
-0.06413860619068146 -0.4285431206226349 8.047965049743652 59 50 53
0.12853394448757172 1.1613469123840332 7.443061828613281 169 175 161
-0.5181916356086731 1.414436936378479 7.919629096984863 16 49 116
0.42539265751838684 -0.5141202807426453 7.988757610321045 101 111 102
0.6971392631530762 1.599480390548706 7.6965813636779785 32 40 51
0.06758611649274826 1.1163455247879028 7.503525733947754 135 121 138
0.7353147864341736 0.8361049890518188 8.884294509887695 181 204 198
0.26779547333717346 1.5445454120635986 7.517773151397705 130 156 181
-0.19978481531143188 1.6689246892929077 7.285877704620361 122 96 105
-0.9066365957260132 1.3640530109405518 8.007314682006836 81 96 99
0.09947105497121811 -0.2161533385515213 7.925486087799072 126 138 136
0.49481987953186035 0.3627907931804657 8.193460464477539 123 119 110
0.5102887749671936 0.38001635670661926 8.215217590332031 134 165 186
-0.593725323677063 -0.03698018565773964 9.073420524597168 152 176 178
0.34087708592414856 -0.6930326819419861 8.139872550964355 173 164 155
0.07199697941541672 1.5355337858200073 7.4383625984191895 19 24 43
0.563692033290863 0.6563364267349243 8.551709175109863 66 52 49
0.7484190464019775 -0.25842592120170593 8.012263298034668 142 137 167
-0.24618341028690338 -0.2613966166973114 8.138811111450195 229 247 247
0.32756227254867554 1.6145356893539429 7.4020514488220215 29 33 60
0.41044992208480835 1.4989675283432007 7.689676761627197 171 184 177
0.7947688102722168 1.457871437072754 8.01322078704834 44 61 91
0.4577926993370056 -0.1848030537366867 7.9311628341674805 28 38 39
0.8663796186447144 0.9610530734062195 8.857515335083008 135 131 120
0.40148988366127014 -0.07464105635881424 7.916574478149414 128 127 123
-0.19532732665538788 1.6398108005523682 7.3605732917785645 133 163 199
0.12757247686386108 1.0942554473876953 7.510797500610352 24 27 42
0.03352469205856323 -0.1828763484954834 7.949065685272217 99 78 87
0.590697705745697 1.494620442390442 7.7806596755981445 61 68 94
0.5319966673851013 1.3303762674331665 8.1105375289917 170 174 157
-0.2949247658252716 0.12209546566009521 8.289314270019531 109 130 131
0.4451562464237213 1.591084361076355 7.495044708251953 70 68 89
-0.7201434969902039 -1.0396302938461304 8.870033264160156 107 129 126
0.7987366914749146 1.444028615951538 8.018842697143555 111 108 139
0.6952508687973022 0.08614872395992279 8.08510971069336 118 143 150
-0.9067662358283997 1.2422198057174683 8.358834266662598 63 63 73
0.9189971089363098 1.3861173391342163 8.332453727722168 151 162 146
0.6430492401123047 -0.8409174680709839 8.46402645111084 136 114 103
0.14708693325519562 1.6395562887191772 7.366759777069092 79 66 60
-1.3876142501831055 1.8327605724334717 7.828734397888184 141 158 148
-0.6214190125465393 -0.860573410987854 8.899608612060547 43 39 36
0.2217412143945694 0.36538073420524597 8.173117637634277 90 89 94
0.0994553416967392 -0.9507986307144165 8.350385665893555 114 102 122
0.11003339290618896 1.6178220510482788 7.41716194152832 200 212 198
-0.4329882562160492 0.5818346738815308 9.212438583374023 65 62 115
0.5087105631828308 -0.2572825253009796 7.908744812011719 31 36 76
0.4992925226688385 1.1428108215332031 8.305877685546875 45 58 102
0.37096843123435974 1.7300645112991333 7.119612693786621 228 244 244
0.5899943709373474 1.6974880695343018 7.437066555023193 112 102 111
-0.2215326726436615 0.16213278472423553 8.202371597290039 46 54 57
0.6666969656944275 -0.9240890145301819 8.39986801147461 127 122 102
-0.5897098779678345 -0.3438131809234619 9.01205825805664 242 253 249
-0.03634396195411682 1.4262057542800903 7.46457576751709 31 69 114
0.006953904405236244 1.3991519212722778 7.429530620574951 90 100 91
0.8120123744010925 0.9284062385559082 8.839674949645996 116 96 98
0.3022499680519104 -0.35998231172561646 7.903781890869141 186 201 194
0.021413138136267662 0.0975208729505539 8.028462409973145 125 107 103
-0.6459899544715881 -0.6365855932235718 8.934514999389648 140 159 174
0.054477982223033905 0.1721477061510086 8.047159194946289 84 72 122
-0.39731013774871826 1.704843521118164 7.374482154846191 43 56 75
0.11444132775068283 0.47472289204597473 8.374536514282227 199 210 194
0.44481199979782104 -0.430684357881546 7.95695161819458 96 130 139
0.585049033164978 -0.9246711134910583 8.439048767089844 20 31 49
-0.23526504635810852 1.6097055673599243 7.41066312789917 110 125 122
0.37901896238327026 1.8703420162200928 7.159032821655273 164 153 185
-0.5977727174758911 -0.42338231205940247 8.99769401550293 87 71 72
0.3422948718070984 0.38057634234428406 8.127306938171387 55 57 82
-0.6008706092834473 0.13277223706245422 9.128846168518066 47 48 68
-0.9624224305152893 1.4791700839996338 7.841149806976318 60 66 126
0.36868229508399963 1.630059003829956 7.323081970214844 188 172 156
-0.4717138409614563 -0.6757182478904724 8.925008773803711 145 129 113
-0.03948371484875679 -0.2820321321487427 7.995076656341553 55 56 58
-0.193145290017128 0.04616895690560341 8.139670372009277 130 123 107
0.5601323843002319 0.46897009015083313 8.420135498046875 195 212 204
-0.2282034158706665 0.15590977668762207 8.24315071105957 131 115 141
-0.05441244691610336 -0.3091517984867096 8.015321731567383 182 194 174
0.8411651253700256 -0.7180865406990051 8.424235343933105 197 179 177
0.3593336343765259 -0.9138246178627014 8.536904335021973 30 32 27
-0.4691319167613983 0.35424843430519104 9.1961088180542 83 71 75
-0.3096787929534912 0.042124561965465546 8.247087478637695 202 219 209
0.21625088155269623 0.4413033723831177 8.26270580291748 188 198 189
-0.5107293725013733 -0.592371940612793 8.948897361755371 150 128 104
0.6235495209693909 0.8625404834747314 8.846388816833496 60 60 58
-0.9279758334159851 1.5238276720046997 7.779757022857666 101 108 126
-0.17867261171340942 0.21165190637111664 8.237882614135742 210 202 189
-0.37018853425979614 1.8067100048065186 7.433176517486572 148 161 151
0.23882225155830383 0.6359665989875793 8.735838890075684 168 189 194
-0.6355511546134949 -0.5455099940299988 8.987744331359863 26 46 44
-0.23464681208133698 0.5895079374313354 9.144131660461426 134 169 188
-0.48958536982536316 -0.7318199872970581 8.87662410736084 48 36 38
0.15751312673091888 -0.010273129679262638 7.946663856506348 92 74 72
-0.19957834482192993 1.5961570739746094 7.436497211456299 65 55 108
0.6955977082252502 -0.4661625921726227 8.077323913574219 184 197 179
-0.39831575751304626 0.8325479626655579 8.478684425354004 178 187 182
0.37901896238327026 1.8703420162200928 7.159032821655273 143 127 101
-0.21904194355010986 1.6067477464675903 7.4137959480285645 49 53 101
-0.6917465925216675 1.6411561965942383 7.522482395172119 128 163 185
-0.4916806221008301 1.540209412574768 7.765138149261475 139 145 145
-0.021953480318188667 0.16339918971061707 8.09939193725586 84 68 79
0.5690171122550964 1.2432259321212769 8.276496887207031 69 88 82
0.7122349739074707 1.5246444940567017 7.799746513366699 97 115 137
0.054438382387161255 -0.6654139757156372 8.176314353942871 99 85 85
0.4286832809448242 -0.39953771233558655 7.95339822769165 23 35 75
0.18064461648464203 0.0421556755900383 7.964669704437256 144 153 160
-0.25933367013931274 -0.08243793249130249 8.123126983642578 136 171 191
0.5944048762321472 -0.9199685454368591 8.470375061035156 69 65 79
0.20413604378700256 1.1758005619049072 7.4976115226745605 36 43 85
0.7100844383239746 0.011131111532449722 8.09367847442627 66 86 123
-0.3356620669364929 -0.8702448010444641 8.829115867614746 51 59 121
0.052879609167575836 0.005537999793887138 7.979840278625488 152 163 155
-0.24314160645008087 1.8433645963668823 7.367210388183594 129 139 140
-0.21904194355010986 1.6067477464675903 7.4137959480285645 140 140 128
-0.22594980895519257 1.6410772800445557 7.328978538513184 174 163 143
1.0053637027740479 -0.47614410519599915 8.405500411987305 182 206 190
-0.01581081748008728 1.635496735572815 7.365331649780273 220 227 209
0.5202710032463074 -0.29732057452201843 7.933652877807617 75 101 124
-0.15856795012950897 -0.2544337213039398 8.058276176452637 64 46 44
-0.8709031343460083 1.4320958852767944 7.861846446990967 45 37 50
0.9691190123558044 1.2285809516906738 8.68889331817627 107 129 126
0.3026884198188782 -0.8491277694702148 10.215426445007324 120 150 178
0.43478599190711975 -0.8364481925964355 10.18524169921875 80 65 72
0.1947224885225296 -0.5495209693908691 10.257061958312988 229 241 239
0.14878860116004944 -0.5176777243614197 10.267354965209961 203 222 220
-3.129631757736206 0.30089497566223145 7.87636137008667 90 65 69
0.30905380845069885 -0.7914289236068726 10.222782135009766 116 102 101
0.4380623996257782 -0.25113770365715027 10.200787544250488 68 65 56
0.1177152544260025 -0.5095530152320862 10.269566535949707 119 102 110
0.1947224885225296 -0.5495209693908691 10.257061958312988 24 22 35
0.5508814454078674 -0.3628898561000824 10.172891616821289 113 130 122
0.3633948564529419 -0.5724112391471863 10.232197761535645 75 84 89
-0.695426881313324 2.166343927383423 10.691356658935547 208 220 216
-0.3030374348163605 1.4832578897476196 10.669437408447266 43 80 63
-0.19597455859184265 1.382930040359497 10.651778221130371 174 164 155
0.4994492828845978 -0.5298832654953003 10.188642501831055 165 151 140
0.4994492828845978 -0.5298832654953003 10.188642501831055 70 94 118
0.19069640338420868 -0.8684415817260742 10.235401153564453 92 103 97
-0.04361221566796303 1.3511508703231812 10.632977485656738 76 80 83
0.0333978608250618 1.5956242084503174 10.635574340820312 83 81 121
0.07111749053001404 -0.783981204032898 10.255273818969727 43 45 42
0.5594688057899475 -0.39237433671951294 10.169218063354492 87 112 116
0.12679970264434814 -0.4720000922679901 10.264544486999512 141 151 163
-1.2613003253936768 1.0361512899398804 10.031167984008789 151 133 147
0.3019004464149475 -0.4482984244823456 10.245614051818848 31 69 114
-0.5832878947257996 2.088519334793091 10.763837814331055 107 98 89
-2.2333171367645264 0.3330765664577484 8.499330520629883 121 105 105
-2.8181424140930176 0.30000171065330505 8.158790588378906 41 67 124
-1.205297827720642 0.8797814249992371 10.031407356262207 99 113 126
-3.218071460723877 0.40334123373031616 7.817600250244141 157 165 168
0.4746986925601959 -0.16312547028064728 10.177924156188965 136 139 130
0.17707501351833344 -0.2714242935180664 10.261775016784668 205 193 193
-0.23741628229618073 1.551747441291809 10.672311782836914 149 155 151
0.5548998713493347 -0.9750382304191589 10.111788749694824 152 164 160
-0.1344035267829895 2.1766350269317627 10.882383346557617 135 133 144
-0.21960397064685822 1.5014591217041016 10.665498733520508 58 59 79
0.4463096857070923 -0.1592002660036087 10.203116416931152 151 128 148
0.508442759513855 -0.8779239058494568 10.152626991271973 113 101 103
0.48681166768074036 -0.5174620747566223 10.19665241241455 175 191 188
0.22718848288059235 -0.7323694229125977 10.245139122009277 236 251 244
0.710072934627533 -0.2839718461036682 10.099772453308105 90 117 134
-0.34129464626312256 1.3993191719055176 10.66659164428711 162 165 180
0.39641427993774414 -0.8844242691993713 10.184903144836426 79 78 83
0.540077805519104 -0.4088767170906067 10.175769805908203 59 57 97
-0.2154831737279892 1.4370073080062866 10.662331581115723 97 115 125
-0.5538301467895508 2.24627947807312 10.772093772888184 107 120 111
-0.2866312265396118 -0.40841642022132874 10.264710426330566 155 172 166
-2.205221652984619 1.8257051706314087 9.950088500976562 57 58 60
-1.6376230716705322 2.1143202781677246 10.310489654541016 93 90 85
0.14074213802814484 -0.5992775559425354 10.263382911682129 70 99 115
0.5019626617431641 -0.6114980578422546 10.188651084899902 95 83 133
0.22205178439617157 -0.06048925966024399 10.235037803649902 77 84 66
0.23585405945777893 -0.18453235924243927 10.240426063537598 69 54 57
0.7041550874710083 -0.32098811864852905 10.102911949157715 38 62 100
1.2094217538833618 -0.5110512375831604 9.661063194274902 150 169 184
0.5085552334785461 -0.17143894731998444 10.172042846679688 55 55 67
0.41385746002197266 -0.8493682742118835 10.189678192138672 132 111 110
-1.4719476699829102 1.9015328884124756 10.431877136230469 102 91 99
-0.30607524514198303 1.2756413221359253 10.642111778259277 94 93 89
-2.280855894088745 2.0456624031066895 9.891388893127441 166 178 164
-2.983950138092041 -0.036105602979660034 7.935323715209961 145 148 121
0.006318957544863224 1.6043891906738281 10.63752555847168 37 49 65
-0.24973836541175842 1.5235940217971802 10.665870666503906 148 161 154
-0.21960397064685822 1.5014591217041016 10.665498733520508 72 62 112
0.5947656631469727 -0.4392988085746765 10.156675338745117 153 166 159
-0.2885890603065491 1.4046986103057861 10.6622896194458 119 152 183
0.2928546071052551 -0.016568973660469055 10.214421272277832 152 167 160
-1.5235600471496582 1.8941140174865723 10.377525329589844 152 165 174
-3.2652647495269775 -0.0833050087094307 7.722238540649414 151 164 173
-1.2121543884277344 2.264843702316284 10.44727611541748 70 66 103
-1.4529200792312622 2.0481789112091064 10.402054786682129 66 57 62
-0.695426881313324 2.166343927383423 10.691356658935547 173 156 136
-0.09098181128501892 2.249891757965088 10.910651206970215 171 171 169
-0.004067627247422934 -0.4806439280509949 10.278043746948242 110 112 133
0.5170333385467529 -0.3607582747936249 10.184488296508789 69 66 93
0.10236697643995285 -0.5495163202285767 10.270334243774414 53 48 55
0.3567224144935608 -0.8212770223617554 10.205086708068848 69 95 146
0.36873432993888855 -0.32569849491119385 10.221957206726074 61 56 63
-0.1785721778869629 1.5026606321334839 10.661140441894531 128 109 111
-1.8690927028656006 2.027466297149658 10.146632194519043 126 111 108
0.2353018969297409 0.08609554916620255 10.201079368591309 123 128 124
0.3924446702003479 -0.331030935049057 10.211468696594238 110 104 108
0.19156020879745483 -0.7290257215499878 10.251653671264648 97 91 93
0.6437952518463135 0.015336515381932259 10.091733932495117 183 192 189
-1.108474850654602 0.8337647318840027 10.04943561553955 105 93 97
0.4515036940574646 -0.5868746638298035 10.204487800598145 76 59 65
0.3781980574131012 1.5696057081222534 10.457618713378906 180 186 174
0.6437952518463135 0.015336515381932259 10.091733932495117 118 136 136
-0.2885890603065491 1.4046986103057861 10.6622896194458 97 135 174
-0.13682368397712708 1.3297348022460938 10.63922119140625 111 150 179
0.6693269610404968 -0.8622024655342102 10.08000659942627 68 89 110
0.6932895183563232 -0.646769642829895 10.103813171386719 96 125 123
0.10021128505468369 -0.7942555546760559 10.257475852966309 99 110 130
0.1329089105129242 -0.5558003187179565 10.268206596374512 81 99 147
-0.9299144148826599 -0.5335837006568909 9.807551383972168 96 85 93
0.5058504939079285 -0.4031740725040436 10.192376136779785 24 21 30
0.7054336071014404 -0.2165231704711914 10.093768119812012 55 72 124
0.6455300450325012 -0.2188648283481598 10.127450942993164 64 52 64
-1.568941354751587 1.9402077198028564 10.349261283874512 123 145 132
-1.936935544013977 1.5448453426361084 9.972244262695312 128 163 185
0.3222820460796356 -0.5598317384719849 10.234906196594238 61 67 117
-1.3385745286941528 1.9215527772903442 10.493489265441895 70 69 65
-0.07796567678451538 1.3514593839645386 10.637042045593262 55 54 52
0.6336473822593689 -0.38877686858177185 10.139174461364746 156 156 148
-0.3422214388847351 1.2375664710998535 10.632013320922852 138 133 153
0.6776315569877625 -0.895291268825531 10.069256782531738 53 60 52
-0.6712202429771423 2.1730597019195557 10.722448348999023 144 165 160
-0.27052199840545654 2.4147157669067383 11.007391929626465 97 88 89
0.21376515924930573 -0.8435840010643005 10.233409881591797 167 162 158
0.42560866475105286 -0.8728434443473816 10.180145263671875 133 134 136
-0.7445937991142273 2.1864254474639893 10.703826904296875 93 105 121
0.7961787581443787 -0.18754898011684418 10.042888641357422 15 27 23
-0.2107113003730774 1.4442052841186523 10.655975341796875 122 147 167
0.4189033508300781 -0.7179222106933594 10.200278282165527 48 53 73
-0.1660207062959671 -0.3072974383831024 10.278995513916016 59 85 122
0.5051229000091553 0.07661322504281998 10.137791633605957 66 68 63
-1.2519176006317139 2.267606258392334 10.521878242492676 98 115 105
0.6814401149749756 -0.6216767430305481 10.112417221069336 61 46 65
0.07176211476325989 -0.47804537415504456 10.279739379882812 118 112 112
-1.1740013360977173 1.0738259553909302 10.045557022094727 195 198 179
0.28933990001678467 -0.34197360277175903 10.246086120605469 182 209 238
0.5548998713493347 -0.9750382304191589 10.111788749694824 44 49 68
0.5891814827919006 -0.9009808897972107 10.113225936889648 100 88 100
0.7019762396812439 -0.6015080213546753 10.105203628540039 91 80 84
-0.24927034974098206 -0.8001991510391235 10.242661476135254 79 63 74
-0.3769325017929077 2.2082700729370117 10.8107328414917 112 115 98
0.19248506426811218 -0.8021567463874817 10.242400169372559 172 180 165
0.6561889052391052 -0.6374577879905701 10.120952606201172 141 164 180
0.3426273763179779 -0.6882696151733398 10.222407341003418 184 193 188
-0.19550558924674988 1.4718959331512451 10.65926742553711 76 106 130
-1.1003203392028809 2.098294734954834 10.602126121520996 156 162 178
-0.09084820002317429 2.4352688789367676 10.88537311553955 139 155 144
0.2509569525718689 -0.5706307888031006 10.251047134399414 161 172 164
0.14287307858467102 -0.7011804580688477 10.25728988647461 235 248 241
-0.9957771301269531 1.3845813274383545 10.321967124938965 31 40 79
0.6211150884628296 -0.8607417345046997 10.108004570007324 88 106 94
-0.24693521857261658 1.641384482383728 10.677998542785645 161 177 174
0.038446661084890366 2.424506902694702 10.905341148376465 115 112 107
0.33706778287887573 -0.38803166151046753 10.233128547668457 126 124 111
0.667106568813324 -0.09000048041343689 10.096784591674805 44 39 43
0.3062155246734619 -0.21523775160312653 10.23315143585205 65 79 79
0.353018581867218 -0.6989713907241821 10.224692344665527 221 219 206
-0.06658405065536499 2.187965154647827 10.883076667785645 41 38 67
-1.1003203392028809 2.098294734954834 10.602126121520996 79 80 84
0.30967438220977783 -0.477105051279068 10.241308212280273 34 58 70
0.566829264163971 -0.9514713883399963 10.110753059387207 153 175 212
-0.20115037262439728 1.3307461738586426 10.653653144836426 59 59 71
0.5516816973686218 -0.16324584186077118 10.157867431640625 117 94 102
-0.32688596844673157 -0.41379475593566895 10.255877494812012 108 142 167
-0.05012664943933487 -0.3858449459075928 10.281144142150879 119 100 106
0.7167876362800598 -0.6275700330734253 10.093342781066895 64 78 113
-0.7454137206077576 0.260495126247406 9.850130081176758 189 172 164
0.8205546140670776 -0.42017537355422974 10.038701057434082 123 150 167
-0.06503431499004364 -0.8066128492355347 10.25949764251709 120 130 142
0.3508189022541046 -1.378158450126648 9.936553955078125 96 79 85
0.3426273763179779 -0.6882696151733398 10.222407341003418 102 78 100
0.5242491364479065 -0.3830682933330536 10.179607391357422 104 112 114
0.5242491364479065 -0.3830682933330536 10.179607391357422 148 161 154
0.8037930727005005 -0.4995054006576538 10.049013137817383 81 69 83
-0.057042744010686874 -0.7132589817047119 10.267820358276367 132 130 141
0.6543744206428528 -0.01882736198604107 10.094278335571289 70 87 156
0.6561889052391052 -0.6374577879905701 10.120952606201172 30 28 41
0.299040287733078 -0.3086497187614441 10.24246597290039 233 245 245
0.7054336071014404 -0.2165231704711914 10.093768119812012 104 110 124
-0.11598571389913559 -0.5920460224151611 10.27453899383545 35 49 86
0.3209371864795685 -0.35079875588417053 10.23813247680664 106 86 85
-1.7416629791259766 1.974035620689392 10.184000968933105 45 44 40
0.566829264163971 -0.9514713883399963 10.110753059387207 32 45 61
0.7059071660041809 -0.1729200780391693 10.087121963500977 24 34 44
0.4037695527076721 -0.920598030090332 10.180610656738281 93 99 99
0.40654852986335754 -0.62860107421875 10.249299049377441 119 164 193
0.5691117644309998 -0.14782527089118958 10.14858341217041 226 244 244
0.5832461714744568 -0.4555742144584656 10.161240577697754 218 238 227
0.6816504001617432 -0.5329394936561584 10.11790943145752 58 77 120
-1.0279450416564941 0.8575232028961182 10.067915916442871 24 25 30
0.0026148424949496984 1.618849277496338 10.634233474731445 78 63 66
-0.26707923412323 1.2328776121139526 10.640117645263672 74 88 89
-0.1593238264322281 1.443921685218811 10.652416229248047 50 51 72
0.6815232038497925 -0.5545575022697449 10.113898277282715 99 100 102
0.24906717240810394 -0.648067831993103 10.247855186462402 71 89 127
0.21568366885185242 -1.2538717985153198 10.079004287719727 110 110 112
0.7285027503967285 -0.20004291832447052 10.083870887756348 107 91 94
0.2564351260662079 -0.541240930557251 10.250744819641113 104 80 104
-0.18564307689666748 -0.44337770342826843 10.273242950439453 93 96 87
-1.4542605876922607 1.9055007696151733 10.438339233398438 57 70 87
0.8037930727005005 -0.4995054006576538 10.049013137817383 116 144 165
0.32980746030807495 0.06296245753765106 10.192326545715332 130 151 156
-1.725666880607605 -1.932389497756958 8.515264511108398 109 150 170
0.5516681671142578 0.11304239928722382 10.111489295959473 124 108 119
0.049296166747808456 0.9751912355422974 10.187877655029297 55 87 102
0.6810990571975708 -0.41755974292755127 10.115218162536621 103 86 76
-0.19550558924674988 1.4718959331512451 10.65926742553711 168 173 167
-0.09098181128501892 2.249891757965088 10.910651206970215 151 152 138
0.3319045901298523 -0.440719336271286 10.238529205322266 62 60 71
0.5727571845054626 -0.9684107303619385 10.10360336303711 201 194 178
0.2564351260662079 -0.541240930557251 10.250744819641113 161 172 164
-0.11017502844333649 -0.31796538829803467 10.268306732177734 125 110 115
0.8566373586654663 -0.3441672623157501 10.017813682556152 167 189 186
0.4798910617828369 -0.3973512351512909 10.200163841247559 123 131 116
0.7635896801948547 -0.4363402724266052 10.075948715209961 169 167 168
-0.2124040275812149 2.4082295894622803 10.852534294128418 198 176 165
0.2286093384027481 -0.9706780314445496 10.204018592834473 139 157 169
0.07087375968694687 -0.8449777960777283 10.251965522766113 72 80 82
0.4756162762641907 -0.7147626876831055 10.191130638122559 112 122 131
-0.18999679386615753 -0.5099161267280579 10.2750244140625 160 173 163
-0.732539713382721 0.37852704524993896 9.851164817810059 104 112 114
0.39641427993774414 -0.8844242691993713 10.184903144836426 203 225 213
0.49815163016319275 -0.2950266897678375 10.18819808959961 61 58 69
-0.9944241642951965 2.174757480621338 10.643705368041992 72 99 144
-0.3010954260826111 -0.24581551551818848 10.254119873046875 63 60 69
0.3315185308456421 -1.0667715072631836 10.158686637878418 148 125 109
0.7285027503967285 -0.20004291832447052 10.083870887756348 106 125 140
-0.17373917996883392 -0.1059269830584526 10.259753227233887 32 28 43
-0.09205247461795807 -0.7006129026412964 10.268465995788574 101 114 123
1.1221693754196167 -0.10181999951601028 9.78870677947998 180 148 133
-0.4287525415420532 2.3210511207580566 10.800369262695312 120 139 133
0.44179320335388184 0.09358379989862442 10.155346870422363 97 82 75
-1.6773639917373657 2.1048271656036377 10.277762413024902 123 115 112
-0.6105741262435913 -1.3416446447372437 9.881685256958008 183 197 184
0.3062155246734619 -0.21523775160312653 10.23315143585205 25 29 41
0.18514607846736908 -0.04627567157149315 10.232688903808594 38 38 48
0.30669206380844116 -1.0796682834625244 10.160726547241211 108 102 102
-0.34714972972869873 2.1182119846343994 10.823627471923828 73 99 126
0.329792857170105 -0.3132074177265167 10.2332181930542 62 72 64
-0.1058865562081337 -0.6765359044075012 10.271660804748535 90 134 171
0.11971471458673477 -0.8056603670120239 10.248946189880371 15 17 14
0.053970817476511 2.4083163738250732 10.897470474243164 112 106 120
-0.38918229937553406 2.1854286193847656 10.788850784301758 70 91 122
0.21060103178024292 -0.09646391123533249 10.238811492919922 144 143 138
-1.4103081226348877 1.6140894889831543 10.258695602416992 103 107 118
0.5647120475769043 -0.9877356886863708 10.103835105895996 55 69 104
-0.01327559258788824 -0.699542760848999 10.269401550292969 195 224 255
0.638576865196228 -0.0029333208221942186 10.094257354736328 57 55 56
0.4747427999973297 -0.6313676834106445 10.19293212890625 88 103 106
0.6196402311325073 -0.6371814608573914 10.138017654418945 64 81 107
0.07048685848712921 -0.6738265752792358 10.265716552734375 159 171 171
-0.20656324923038483 1.2748275995254517 10.644387245178223 133 161 173
0.25003817677497864 1.6267039775848389 10.509519577026367 45 54 95
0.40963664650917053 0.13546158373355865 10.160841941833496 123 125 122
-0.02165970951318741 1.3477710485458374 10.627384185791016 152 156 133
-0.32565435767173767 2.147296905517578 10.821060180664062 80 60 71
-0.6604160070419312 0.9396920800209045 10.114473342895508 127 117 141
-0.3085824251174927 2.3906502723693848 10.842913627624512 168 187 185
-1.178193211555481 1.951736330986023 10.574368476867676 165 180 177
0.18514607846736908 -0.04627567157149315 10.232688903808594 112 123 119
-0.6899455785751343 0.3680078089237213 9.90752124786377 51 46 53
-0.3027162551879883 -0.8598090410232544 10.232369422912598 64 64 76
0.15031765401363373 -0.12727457284927368 10.250761032104492 235 237 223
-1.0987191200256348 2.1488592624664307 10.5742769241333 52 51 59
0.3359839618206024 -0.485377699136734 10.237885475158691 82 89 82
0.34575340151786804 -0.9609547853469849 10.183358192443848 49 53 100
0.6511640548706055 -0.19903777539730072 10.118756294250488 44 49 69
-0.32492324709892273 1.6298630237579346 10.688228607177734 226 249 233
0.8566373586654663 -0.3441672623157501 10.017813682556152 119 141 154
0.5425242185592651 -0.8692535161972046 10.139022827148438 177 189 175
0.46851426362991333 1.3231151103973389 10.20671272277832 32 43 63
-2.767942190170288 2.5187606811523438 8.707695007324219 142 152 143
0.7155126929283142 -0.4341531991958618 10.098459243774414 160 140 116
-2.5366058349609375 -1.3533366918563843 8.216056823730469 60 84 120
0.8951948285102844 -1.2187469005584717 9.875969886779785 198 207 202
0.8047325611114502 -0.32315126061439514 10.046142578125 87 73 73
-0.30962690711021423 2.280651330947876 10.828808784484863 14 25 45
-1.4178459644317627 1.427924633026123 10.221295356750488 114 96 108
0.20210827887058258 -0.8229348063468933 10.23944091796875 195 202 208
-3.07159423828125 -0.1832888275384903 7.861412048339844 51 63 77
-1.0028189420700073 0.793693482875824 10.06824779510498 22 28 52
-0.22543059289455414 -0.6932251453399658 10.260714530944824 235 237 223
0.4008626341819763 -0.8270344138145447 10.192660331726074 117 150 195
0.5914788842201233 -0.20779667794704437 10.146617889404297 96 107 109
-0.13366712629795074 -0.8177157640457153 10.263760566711426 88 94 94
-0.17765727639198303 -0.409054160118103 10.275325775146484 193 181 169
-1.5256402492523193 -2.201000452041626 8.582844734191895 134 134 132
0.19241441786289215 -0.9394965767860413 10.217994689941406 64 74 86
0.8158146142959595 -0.7008408308029175 10.027077674865723 84 78 80
-0.01088956743478775 -1.2698241472244263 10.042527198791504 80 73 65
0.11550299823284149 -0.6158883571624756 10.270066261291504 213 226 216
-0.19967946410179138 2.1624889373779297 10.881027221679688 99 97 98
0.22715280950069427 1.310318946838379 10.213884353637695 160 148 168
1.117713212966919 0.4702743589878082 9.739802360534668 91 81 92
0.7055261731147766 -0.8654873371124268 10.06328010559082 72 98 121
-0.19279690086841583 0.12946274876594543 6.520730018615723 69 66 61
0.8187098503112793 -0.19266946613788605 10.030939102172852 57 57 65
0.4546295702457428 -0.7811326384544373 10.18655776977539 49 50 55
0.033658940345048904 -0.8321589231491089 10.25428295135498 59 50 53
-1.3763964176177979 2.0886290073394775 10.4380521774292 124 104 97
-2.724144220352173 -0.3217231333255768 8.10239315032959 205 208 189
0.13371185958385468 -0.07286379486322403 10.247147560119629 138 146 149
0.22521494328975677 -0.015167713165283203 10.226434707641602 109 141 166
0.5733414888381958 -0.05527230724692345 10.135865211486816 127 119 132
0.041254084557294846 -1.2504602670669556 10.078479766845703 42 50 39
-0.06901916116476059 1.4539036750793457 10.643985748291016 86 85 103
0.217259481549263 -0.5934997797012329 10.257509231567383 99 111 111
-0.0849858745932579 -0.3888000547885895 10.274784088134766 168 225 156
-0.13114413619041443 1.3564954996109009 10.643791198730469 84 71 81
0.19674991071224213 -0.8013207912445068 10.404329299926758 82 81 79
-0.06177316978573799 -0.44485360383987427 10.266348838806152 73 88 91
0.33269283175468445 1.3907485008239746 10.281515121459961 52 77 118
1.1177067756652832 -0.10532703250646591 9.776928901672363 122 90 105
-1.4358601570129395 2.1919426918029785 10.407169342041016 187 180 174
-0.41366901993751526 -0.5486023426055908 10.237236976623535 143 145 166
-0.0971732810139656 -0.23417580127716064 10.271953582763672 137 142 136
0.09027029573917389 -0.02630859799683094 10.246172904968262 36 33 42
0.8393959403038025 -0.6812710762023926 10.012585639953613 92 81 97
0.5250692963600159 -0.249837264418602 10.174586296081543 23 35 77
-1.7987895011901855 1.8087431192398071 10.239182472229004 140 121 140
0.7385128736495972 -0.12305236607789993 10.071041107177734 82 84 97
0.9499452710151672 -1.1227058172225952 9.835661888122559 60 59 93
-0.22543059289455414 -0.6932251453399658 10.260714530944824 39 47 66
-0.04010576009750366 -0.8499811887741089 10.248550415039062 105 127 141
-1.2225900888442993 1.8681880235671997 10.536690711975098 82 79 88
-0.7445937991142273 2.1864254474639893 10.703826904296875 90 90 82
-1.2916197776794434 2.0027782917022705 10.492650985717773 93 68 71
0.5170333385467529 -0.3607582747936249 10.184488296508789 109 134 131
0.308540403842926 0.7265169620513916 9.876269340515137 59 52 60
-0.09722954779863358 -0.378079354763031 10.278373718261719 57 58 53
-0.6696600317955017 2.069584846496582 10.73564338684082 54 87 120
0.4316091239452362 1.360506296157837 10.241739273071289 54 63 68
0.6413396000862122 -1.1662780046463013 9.90363883972168 130 125 105
0.18915486335754395 0.6028686761856079 10.008452415466309 49 53 100
0.5330063104629517 -0.1783575415611267 10.167872428894043 87 77 75
-1.0556297302246094 2.259112596511841 10.599172592163086 40 41 43
0.36020803451538086 -0.01253590639680624 10.196064949035645 91 77 92
-2.689326286315918 -1.2902404069900513 8.113363265991211 41 42 44
0.1951359212398529 1.051982045173645 10.217926979064941 79 90 108
-0.016477001830935478 -0.5640788674354553 10.283429145812988 37 35 46
-0.20088036358356476 -0.18009831011295319 10.261122703552246 129 109 118
-1.1592819690704346 2.0326733589172363 10.564613342285156 57 65 78
0.5284764766693115 -1.4341373443603516 9.9102144241333 143 134 155
-0.02023395709693432 -0.6712478399276733 10.268651962280273 179 169 160
-0.4104491174221039 -0.820198118686676 10.198606491088867 53 57 56
-0.24927034974098206 -0.8001991510391235 10.242661476135254 124 122 127
0.26138389110565186 1.0842126607894897 10.210749626159668 38 48 49
0.217259481549263 -0.5934997797012329 10.257509231567383 84 73 77
0.5516816973686218 -0.16324584186077118 10.157867431640625 69 66 93
-0.19057078659534454 -0.15692496299743652 10.26218032836914 40 37 64
-0.9667167067527771 -0.8926473259925842 9.80113697052002 158 176 176
0.8916753530502319 -0.4262163043022156 9.996870994567871 34 35 65
-0.22297869622707367 -0.5632169842720032 10.270758628845215 64 88 116
-0.665064811706543 1.9897699356079102 10.758976936340332 155 161 183
1.1054778099060059 -0.1993219554424286 9.793319702148438 127 156 170
0.7039046883583069 -0.17123064398765564 10.0816068649292 82 77 83
-3.6077630519866943 2.3200008869171143 8.724390983581543 36 41 44
0.5220049023628235 -0.315205454826355 10.17892074584961 91 110 124
-0.7104014158248901 1.8192815780639648 10.648676872253418 126 109 101
0.24114973843097687 -0.3870437741279602 10.257221221923828 222 207 202
-2.781352996826172 -0.41508036851882935 8.01732349395752 52 52 60
0.9954718351364136 -1.3714563846588135 9.84272289276123 53 82 78
0.1424015909433365 -0.09832365065813065 10.24998950958252 119 125 121
0.3819860517978668 -0.9692187905311584 10.176165580749512 91 76 71
0.34117773175239563 1.6283714771270752 10.491209983825684 82 78 101
-0.09063202142715454 1.6562451124191284 10.66187858581543 70 61 64
0.21778199076652527 0.005036248359829187 10.22963809967041 218 230 230
0.20237787067890167 0.016122298315167427 10.23310375213623 128 151 185
0.08390926569700241 -0.39193424582481384 10.275516510009766 95 93 94
-1.6010128259658813 1.9865139722824097 10.337209701538086 77 73 87
0.5521930456161499 0.012186168693006039 10.133562088012695 73 68 64
-2.175459384918213 1.7947053909301758 9.950130462646484 28 29 47
0.7019762396812439 -0.6015080213546753 10.105203628540039 168 159 154
-0.372113972902298 2.1958885192871094 10.864623069763184 111 130 144
1.2172423601150513 -1.2472710609436035 9.664766311645508 121 129 152
-0.26167893409729004 -0.929582953453064 10.215054512023926 167 157 147
1.0502816438674927 1.6619089841842651 9.898762702941895 83 74 75
0.85843825340271 -0.7017932534217834 9.998614311218262 167 147 136
0.7417610287666321 -0.6153538823127747 10.084212303161621 167 154 135
0.012796947732567787 -1.341528296470642 9.99271297454834 46 37 40
-0.1760239154100418 -0.4670395255088806 10.270491600036621 149 151 140
-0.7733835577964783 1.3759982585906982 10.307964324951172 42 51 66
-0.6814268231391907 2.2182366847991943 10.663420677185059 129 132 137
0.19968952238559723 0.0900760293006897 10.217724800109863 114 113 108
0.9035179018974304 -1.0330138206481934 9.846193313598633 54 47 55
-0.14274804294109344 1.4805305004119873 10.650489807128906 30 32 29
0.4679516851902008 0.15899528563022614 10.132905960083008 156 206 255
1.101074457168579 -0.4600045084953308 9.774853706359863 141 175 187
-0.08836723119020462 -0.6325070858001709 10.274222373962402 110 129 127
-0.2522999346256256 -0.8499777913093567 10.236446380615234 107 138 182
0.34117773175239563 1.6283714771270752 10.491209983825684 67 52 57
0.27078333497047424 -0.4148939549922943 10.25417423248291 83 62 67
-0.21092189848423004 -0.5233942866325378 10.270191192626953 44 40 37
-0.2261895090341568 1.7989680767059326 10.67231273651123 107 107 95
0.3570519983768463 -0.8853195309638977 10.19571304321289 109 134 131
0.014559771865606308 1.6315802335739136 10.63481330871582 136 137 157
0.21572765707969666 0.03766646608710289 10.220739364624023 65 61 86
-1.39951491355896 1.5002806186676025 10.251714706420898 31 37 73
0.08896706998348236 1.9333359003067017 10.785994529724121 47 49 62
-0.017245059832930565 -0.3449273705482483 10.281025886535645 113 130 122
0.25896909832954407 -0.4443511664867401 10.256189346313477 213 226 216
0.2058899849653244 -0.18332044780254364 10.249608993530273 48 35 63
0.9146667718887329 -1.5066466331481934 9.861145973205566 83 121 166
-2.012040853500366 2.0444796085357666 10.074175834655762 152 156 123
0.6027615070343018 -1.0216200351715088 10.06799030303955 107 97 106
0.49970945715904236 -0.6600399613380432 10.186369895935059 94 80 97
-0.35623693466186523 -0.3804783821105957 10.247379302978516 86 75 83
-0.11550036072731018 -1.0156230926513672 10.212976455688477 107 124 134
0.34199777245521545 -2.324641704559326 8.608688354492188 172 195 179
-1.7102547883987427 2.0970773696899414 10.264225959777832 89 79 87
0.6339991688728333 -0.894306480884552 10.097476959228516 145 153 164
-1.3625638484954834 1.8456319570541382 10.468174934387207 209 229 228
-1.875799298286438 2.077409505844116 10.149908065795898 58 48 49
0.07078731060028076 -0.23920325934886932 10.271360397338867 141 165 175
0.3737782835960388 -0.49653324484825134 10.234025955200195 125 121 148
-0.32573801279067993 -0.26980555057525635 10.249865531921387 54 60 84
0.9502071738243103 -0.35326528549194336 9.89244556427002 26 27 32
-0.4248688817024231 -0.3570297956466675 10.241963386535645 116 106 105
-0.33786478638648987 0.6370614767074585 9.921777725219727 119 140 167
-1.5315454006195068 1.6347572803497314 10.249972343444824 58 48 49
0.6215962767601013 -0.9260739088058472 10.089879989624023 51 51 87
-0.04190954193472862 2.323363780975342 10.876368522644043 60 51 52
0.6455300450325012 -0.2188648283481598 10.127450942993164 83 71 81
-1.4945987462997437 2.081902265548706 10.371907234191895 172 163 154
-0.2522999346256256 -0.8499777913093567 10.236446380615234 71 87 110
0.6331524848937988 -0.03779584541916847 10.109650611877441 90 97 90
-1.6072443723678589 2.1005148887634277 10.316332817077637 94 111 118
-0.15345412492752075 -1.0372562408447266 10.197437286376953 123 111 111
0.5707560181617737 -0.08569371700286865 10.134405136108398 99 90 109
-0.24952098727226257 -0.11531465500593185 10.247498512268066 97 91 95
0.23419030010700226 -0.8335036635398865 10.251265525817871 111 106 103
0.5019626617431641 -0.6114980578422546 10.188651084899902 102 80 83
-1.2324548959732056 1.8667606115341187 10.272786140441895 65 67 66
0.6738271713256836 -0.5936273336410522 10.116872787475586 76 68 66
-0.3390693962574005 1.8749130964279175 10.73480224609375 146 163 170
0.32283785939216614 -0.738572895526886 10.293270111083984 117 103 103
0.08160968869924545 -0.26963868737220764 10.269695281982422 79 68 64
-0.9709453582763672 1.8986244201660156 10.641172409057617 71 57 56
-0.3185373842716217 2.0865061283111572 10.850319862365723 191 203 191
0.6953271627426147 -1.1302498579025269 9.889738082885742 151 149 160
0.25459814071655273 -1.1294386386871338 10.152546882629395 23 22 27
0.09149911254644394 -0.00215168041177094 10.239354133605957 125 106 100
-0.18909978866577148 0.15149609744548798 6.530581951141357 62 52 63
0.6861841678619385 -0.6831772923469543 10.106369018554688 90 103 112
-0.41056180000305176 -0.11158271878957748 10.212522506713867 129 111 109
-1.238539218902588 1.6209642887115479 10.3443021774292 144 153 170
-0.5574312210083008 -0.5242947340011597 10.187994003295898 20 28 31
-1.2274788618087769 1.4760093688964844 10.301494598388672 44 74 136
0.5398574471473694 1.672709345817566 10.473748207092285 33 41 87
0.9908095002174377 -1.4305356740951538 9.841279029846191 182 206 190
-0.19561392068862915 -0.5383208990097046 10.267786026000977 166 178 164
-1.6344932317733765 2.0012803077697754 10.261035919189453 102 109 101
-1.4439284801483154 1.882858157157898 10.44454574584961 109 94 97
-0.10872258991003036 1.3271257877349854 10.641051292419434 122 147 141
-0.6149147152900696 -0.4620457589626312 10.173727989196777 112 104 102
-1.364976406097412 1.963486671447754 10.458370208740234 229 240 226
0.011356417089700699 -0.5148339867591858 10.277427673339844 150 146 173
0.8554280996322632 -0.11171483248472214 9.98930549621582 98 95 88
-0.01071951724588871 -0.6553992033004761 10.26876449584961 128 113 134
