ply
format ascii 1.0
element vertex 700
property float x
property float y
property float z
property uchar red
property uchar green
property uchar blue
end_header
-0.14981061220169067 -0.5762391090393066 7.3874711990356445 93 90 85
0.2049785852432251 -0.33598339557647705 7.144537925720215 70 99 115
-0.06152212247252464 0.06722865998744965 7.069422721862793 95 83 133
-0.48505130410194397 -0.05466565862298012 7.224332809448242 77 84 66
0.3706047534942627 -0.7299265265464783 7.7314534187316895 69 54 57
-0.08555203676223755 1.064029335975647 6.431397438049316 38 62 100
0.4432550370693207 0.09666302800178528 7.217644214630127 150 169 184
-0.5452240705490112 -0.6867963075637817 8.027223587036133 55 55 67
-0.8740289807319641 -0.29024380445480347 8.131370544433594 132 111 110
-0.18293382227420807 0.026183318346738815 7.085209846496582 102 91 99
-0.5506329536437988 1.6434539556503296 6.175416469573975 94 93 89
-0.5151445269584656 1.4287574291229248 6.261353492736816 166 178 164
-0.5196481943130493 1.4464157819747925 6.174652099609375 145 148 121
0.741788387298584 -0.2916364371776581 7.609187602996826 37 49 65
-0.3189472258090973 1.4619452953338623 6.218130588531494 148 161 154
0.28776097297668457 -0.23606938123703003 7.111695766448975 72 62 112
-0.3742108643054962 -0.2216423600912094 7.196322441101074 153 166 159
0.586484968662262 1.4061728715896606 7.334424018859863 119 152 183
-1.1540886163711548 1.2938226461410522 6.691938400268555 152 167 160
0.5872724652290344 1.3696180582046509 7.582366466522217 152 165 174
0.2321564257144928 -0.28710535168647766 7.147779941558838 151 164 173
0.3246583044528961 -0.2731701135635376 7.171215057373047 70 66 103
0.14334756135940552 -0.07751695811748505 7.093735218048096 66 57 62
0.1101560965180397 -0.057025715708732605 7.081263065338135 173 156 136
0.2352590411901474 -0.2444736808538437 7.132357597351074 171 171 169
0.2944647967815399 0.14557720720767975 7.1546783447265625 110 112 133
0.08724953234195709 -0.05325588956475258 7.081493854522705 69 66 93
0.14334756135940552 -0.07751695811748505 7.093735218048096 53 48 55
0.38258934020996094 0.07029170542955399 7.167287826538086 69 95 146
0.2650452256202698 -0.08465664833784103 7.103874206542969 61 56 63
-0.458767294883728 1.658445954322815 6.252659797668457 128 109 111
-0.18903468549251556 1.2420167922973633 6.383948802947998 126 111 108
-0.12168372422456741 1.1867616176605225 6.424562931060791 123 128 124
0.3563658893108368 -0.050574593245983124 7.14901876449585 110 104 108
0.3563658893108368 -0.050574593245983124 7.14901876449585 97 91 93
0.15462544560432434 -0.305804967880249 7.130699157714844 183 192 189
-0.027634626254439354 1.1779656410217285 6.463653564453125 105 93 97
0.008799698203802109 1.3435841798782349 6.4623517990112305 76 59 65
0.06631259620189667 -0.2521892189979553 7.10972261428833 180 186 174
0.3902844488620758 0.04939328879117966 7.170652866363525 118 136 136
0.08997824788093567 -0.026746394112706184 7.091145992279053 97 135 174
-1.1537054777145386 1.036727786064148 7.28152322769165 111 150 179
0.21395620703697205 8.284771320177242e-05 7.097888469696045 68 89 110
-0.35593023896217346 1.5826683044433594 6.175208568572998 99 110 130
-1.1064375638961792 0.9167043566703796 7.322760105133057 81 99 147
0.3122672438621521 0.21021988987922668 7.190945148468018 96 85 93
0.11342404037714005 0.11872804164886475 7.094279766082764 24 21 30
-0.15117880702018738 1.2901870012283325 6.388219356536865 55 72 124
0.41091692447662354 -0.37771347165107727 7.275720596313477 64 52 64
-0.05329689383506775 1.6140533685684204 6.084151744842529 123 145 132
-0.13924679160118103 1.2600040435791016 6.400881290435791 128 163 185
0.29572808742523193 0.21230950951576233 7.1491217613220215 61 67 117
0.3767942190170288 -0.30312255024909973 7.212123870849609 70 69 65
0.3472023904323578 -0.04167957976460457 7.140470504760742 55 54 52
0.1758686602115631 -0.20541830360889435 7.107682704925537 156 156 148
0.489729642868042 0.1315334439277649 7.247738838195801 138 133 153
-0.20842322707176208 1.184850811958313 6.382061004638672 53 60 52
0.2984169125556946 -0.31045791506767273 7.181490421295166 144 165 160
0.3774678707122803 0.03693757578730583 7.165207386016846 97 88 89
-0.13379035890102386 1.2184195518493652 6.406366348266602 167 162 158
-0.3456459939479828 1.6847974061965942 6.1697235107421875 133 134 136
-0.2172001302242279 -0.010929953306913376 7.104567050933838 93 105 121
-1.6701014041900635 1.4779444932937622 6.447901725769043 15 27 23
-1.1752363443374634 1.6622138023376465 6.356044292449951 122 147 167
0.10821235924959183 -0.115596704185009 7.088998794555664 48 53 73
0.36296388506889343 -0.10821657627820969 7.147833347320557 59 85 122
0.1255786120891571 0.27206459641456604 7.145516872406006 66 68 63
0.14595815539360046 0.18338614702224731 7.127719879150391 98 115 105
0.48759356141090393 0.10443200170993805 7.244176387786865 61 46 65
0.92348313331604 -0.03699818253517151 7.12587308883667 118 112 112
0.3377949297428131 0.20582818984985352 7.191140651702881 195 198 179
0.31045639514923096 -0.28315994143486023 7.1685686111450195 44 49 68
-0.9958203434944153 1.4851092100143433 6.280972957611084 100 88 100
-0.18823643028736115 1.1124690771102905 6.426995277404785 91 80 84
-1.765727162361145 1.6542757749557495 6.449462890625 79 63 74
-0.009030935354530811 1.3480513095855713 6.4593000411987305 112 115 98
-0.15961916744709015 1.2731373310089111 6.397139072418213 172 180 165
-0.13924679160118103 1.2600040435791016 6.400881290435791 141 164 180
0.4179140627384186 0.016875384375452995 7.1818156242370605 184 193 188
-0.17771299183368683 1.1929874420166016 6.397125244140625 76 106 130
0.17103122174739838 0.3078266978263855 7.173707485198975 156 162 178
-1.0581597089767456 1.4952332973480225 6.336493015289307 139 155 144
-0.8902158737182617 1.7856181859970093 6.419559955596924 161 172 164
-1.0206645727157593 1.6073760986328125 6.3423542976379395 235 248 241
-0.458767294883728 1.658445954322815 6.252659797668457 31 40 79
-0.022825362160801888 1.6489390134811401 6.048515319824219 88 106 94
-0.0016794794937595725 -0.04050429165363312 7.077442169189453 161 177 174
0.35858017206192017 0.07065591961145401 7.157094955444336 115 112 107
0.07865841686725616 -0.08241259306669235 7.081559658050537 126 124 111
0.26887956261634827 -0.2650657594203949 7.154526710510254 44 39 43
0.25108933448791504 0.08933131396770477 7.130173683166504 65 79 79
-0.11483331769704819 1.2643266916275024 6.411976337432861 41 38 67
-1.3978654146194458 1.628479242324829 6.445247173309326 79 80 84
0.11617302894592285 0.3805278241634369 7.214780807495117 34 58 70
0.2671005129814148 0.08619918674230576 7.143763065338135 153 175 212
0.1511012464761734 -0.2046583741903305 7.100165367126465 59 59 71
0.4175325334072113 0.34919804334640503 7.306938171386719 117 94 102
-1.0273603200912476 0.8872526288032532 7.343747615814209 108 142 167
0.32642075419425964 -0.09227261692285538 7.132714748382568 119 100 106
0.19908089935779572 1.398218035697937 6.72898006439209 64 78 113
0.4175325334072113 0.34919804334640503 7.306938171386719 189 172 164
-0.17771299183368683 1.1929874420166016 6.397125244140625 123 150 167
-0.08485148847103119 1.1580196619033813 6.449357032775879 120 130 142
0.4885554313659668 -0.2932371199131012 7.293047904968262 96 79 85
0.4982869029045105 -0.13164836168289185 7.238076210021973 102 78 100
0.08926738798618317 -0.25652915239334106 7.101036071777344 104 112 114
0.10104607045650482 -0.08489027619361877 7.081425666809082 148 161 154
-0.9901458024978638 -0.2430194616317749 8.092048645019531 81 69 83
0.3541107177734375 0.040372084826231 7.144435882568359 132 130 141
0.4810282588005066 0.18031930923461914 7.265661716461182 70 87 156
0.43946462869644165 0.1769264191389084 7.22388219833374 30 28 41
-1.1028833389282227 1.5323474407196045 6.349679946899414 233 245 245
-1.5586433410644531 1.3291107416152954 6.748291492462158 104 110 124
0.23383602499961853 -0.0784904882311821 7.110030174255371 35 49 86
-0.8936891555786133 1.4952999353408813 6.267470836639404 106 86 85
-0.048712294548749924 1.1755815744400024 6.455866813659668 45 44 40
0.4422163963317871 0.05398957431316376 7.200830936431885 32 45 61
-0.21249377727508545 1.0879735946655273 6.4381866455078125 24 34 44
0.4953831136226654 -0.3187689483165741 7.31084680557251 93 99 99
-0.43045762181282043 1.6498998403549194 6.21182107925415 119 164 193
-0.10587150603532791 1.6982665061950684 5.898259162902832 226 244 244
0.1698722392320633 -0.2868308424949646 7.130086898803711 218 238 227
0.31870293617248535 -0.300814151763916 7.184075355529785 58 77 120
-0.4815603494644165 1.6601670980453491 6.215848922729492 24 25 30
0.5445520877838135 0.20427565276622772 7.3238325119018555 78 63 66
-0.13325296342372894 1.2253950834274292 6.4160637855529785 74 88 89
0.308423787355423 -0.18805339932441711 7.150114059448242 50 51 72
-0.13192453980445862 0.07153522223234177 7.085612773895264 99 100 102
0.3120654225349426 0.38809889554977417 7.271045207977295 71 89 127
-0.8588038682937622 1.7368049621582031 6.26620626449585 110 110 112
0.48865047097206116 -0.11327245086431503 7.228748321533203 107 91 94
0.05451167747378349 -0.033039309084415436 7.067104816436768 104 80 104
-1.0934040546417236 1.0764806270599365 7.310911178588867 93 96 87
0.19801269471645355 0.07458773255348206 7.101644992828369 116 144 165
0.41091692447662354 -0.37771347165107727 7.275720596313477 130 151 156
0.4334442615509033 -0.32108408212661743 7.260440349578857 109 150 170
0.5025781989097595 -0.09825225919485092 7.232791423797607 124 108 119
-0.17138777673244476 -0.291874498128891 7.143417835235596 55 87 102
-0.2243044525384903 1.6547385454177856 6.152536869049072 103 86 76
0.15376974642276764 -0.2576691806316376 7.11735725402832 168 173 167
0.4714738726615906 -0.1251826286315918 7.220565319061279 151 152 138
0.2541085481643677 -0.16932900249958038 7.126763343811035 62 60 71
-0.12431515753269196 1.2436186075210571 6.413084983825684 161 172 164
-0.7209478616714478 1.6039849519729614 6.223729610443115 125 110 115
-0.041084595024585724 1.7783353328704834 6.0830817222595215 167 189 186
0.1850154548883438 -0.08907460421323776 7.094616413116455 123 131 116
0.11439281702041626 -0.1880355328321457 7.099661827087402 169 167 168
-0.793134868144989 1.2385718822479248 6.79607629776001 198 176 165
0.4552192986011505 -0.2904128432273865 7.256961822509766 139 157 169
-0.16067644953727722 1.3472930192947388 6.378105640411377 72 80 82
0.04345187917351723 1.7651333808898926 6.063281536102295 112 122 131
0.23384904861450195 0.04386156424880028 7.1136956214904785 160 173 163
0.4435582756996155 0.2717798054218292 7.281374454498291 104 112 114
0.19934652745723724 0.16521905362606049 7.126447677612305 203 225 213
0.2632634937763214 -0.17557403445243835 7.118516445159912 61 58 69
-0.013073897920548916 1.6233880519866943 6.088685989379883 72 99 144
-0.7209478616714478 1.6039849519729614 6.223729610443115 63 60 69
0.22064071893692017 -0.020214060321450233 7.103142738342285 148 125 109
0.418757826089859 -0.35988208651542664 7.2723894119262695 106 125 140
-0.12088434398174286 1.151077389717102 6.420320510864258 32 28 43
0.3681389093399048 0.2135983407497406 7.203197002410889 101 114 123
-0.24971427023410797 -0.018760260194540024 7.1196513175964355 180 148 133
-0.04094395041465759 0.02375728078186512 7.076831340789795 120 139 133
0.5140888690948486 -0.11762949824333191 7.24796724319458 97 82 75
-0.8933477401733398 0.47745785117149353 8.084275245666504 123 115 112
0.5769932866096497 0.03357463702559471 7.311323165893555 183 197 184
-0.030763067305088043 -0.2781222462654114 7.111024856567383 25 29 41
0.2323053479194641 -0.7608742117881775 7.735377311706543 38 38 48
0.2541085481643677 -0.16932900249958038 7.126763343811035 108 102 102
0.36448362469673157 0.05472268536686897 7.163910865783691 73 99 126
0.36448362469673157 0.05472268536686897 7.163910865783691 62 72 64
0.5694548487663269 -0.024480318650603294 7.296948432922363 90 134 171
-0.028255276381969452 -0.21010911464691162 7.095693111419678 15 17 14
0.4286448061466217 0.3240716755390167 7.294836521148682 112 106 120
0.4714738726615906 -0.1251826286315918 7.220565319061279 70 91 122
0.20231468975543976 0.09861474484205246 7.107155799865723 103 107 118
0.4810282588005066 0.18031930923461914 7.265661716461182 55 69 104
-0.0769294798374176 -0.12791621685028076 7.086075305938721 195 224 255
0.2203676402568817 0.06970232725143433 7.10988187789917 57 55 56
-1.3146864175796509 1.6027097702026367 6.502784729003906 88 103 106
0.418757826089859 -0.35988208651542664 7.2723894119262695 64 81 107
0.4778558015823364 0.2121567726135254 7.279975414276123 159 171 171
0.3050631582736969 -0.33636850118637085 7.188712120056152 133 161 173
0.3046801686286926 -0.11809147149324417 7.057547092437744 45 54 95
0.3790972828865051 0.2254563421010971 7.215095520019531 123 125 122
0.4109616279602051 0.0049530030228197575 7.175555229187012 152 156 133
0.4846118688583374 -0.04875723272562027 7.218647003173828 80 60 71
-0.9631779193878174 0.9119885563850403 7.348347187042236 127 117 141
-0.013440048322081566 1.3589904308319092 6.464778900146484 168 187 185
-0.1616690754890442 1.0867542028427124 6.435154914855957 165 180 177
-0.10180376470088959 1.2289161682128906 6.426855564117432 112 123 119
0.4851763844490051 -0.06484469026327133 7.2262043952941895 51 46 53
0.1876850724220276 -0.1440918743610382 7.099337100982666 64 64 76
0.15382862091064453 -0.6261820197105408 7.448249340057373 235 237 223
0.49690037965774536 0.19320936501026154 7.274684429168701 52 51 59
0.1871928572654724 -0.06803923100233078 7.09463357925415 82 89 82
-0.13829338550567627 -0.027662333101034164 7.091376781463623 49 53 100
-0.9837604761123657 1.4883838891983032 6.2827372550964355 44 49 69
0.5694548487663269 -0.024480318650603294 7.296948432922363 226 249 233
0.18837396800518036 0.36841917037963867 7.2122955322265625 119 141 154
0.34134194254875183 0.41823822259902954 7.308642387390137 177 189 175
-0.0992470383644104 1.0537506341934204 7.306288242340088 32 43 63
0.4770614206790924 0.034009505063295364 7.2272515296936035 142 152 143
-0.12431515753269196 1.2436186075210571 6.413084983825684 160 140 116
-0.022825362160801888 1.6489390134811401 6.048515319824219 60 84 120
0.23439615964889526 0.006730145309120417 7.1042585372924805 198 207 202
0.4231775104999542 -0.3732028007507324 7.283871650695801 87 73 73
0.1871928572654724 -0.06803923100233078 7.09463357925415 14 25 45
-0.0942065492272377 0.06680578738451004 7.104995250701904 114 96 108
0.599098801612854 0.0899682566523552 7.3361310958862305 195 202 208
0.3354312479496002 0.04355531185865402 7.1383056640625 51 63 77
0.5373130440711975 0.02184208668768406 7.266040802001953 22 28 52
-0.12344889342784882 1.7728323936462402 6.11729621887207 235 237 223
0.18110540509223938 -0.38190945982933044 7.183513164520264 117 150 195
0.06913638859987259 -0.29566705226898193 7.1148271560668945 96 107 109
0.34950006008148193 -0.18279992043972015 7.149981498718262 88 94 94
-0.13610711693763733 -0.07509490847587585 7.086628437042236 193 181 169
-0.8941395282745361 0.5842549204826355 8.08988094329834 134 134 132
0.2984169125556946 -0.31045791506767273 7.181490421295166 64 74 86
0.34075942635536194 0.11686355620622635 7.158385276794434 84 78 80
-0.6475926041603088 1.6506537199020386 6.208015441894531 80 73 65
-0.24446605145931244 0.10446450859308243 7.129748821258545 213 226 216
0.25390031933784485 -0.45248427987098694 7.249601364135742 99 97 98
0.49690037965774536 0.19320936501026154 7.274684429168701 160 148 168
-0.15957894921302795 0.21522583067417145 7.128279209136963 91 81 92
-0.0543285571038723 -0.20377576351165771 7.095529556274414 72 98 121
0.7949681282043457 0.27624380588531494 7.560191631317139 69 66 61
-0.26582014560699463 1.7296005487442017 6.156686782836914 57 57 65
0.26473894715309143 0.3974616527557373 7.257698059082031 49 50 55
-1.2173389196395874 1.6635950803756714 6.38077449798584 59 50 53
-0.6005973219871521 -0.8668056726455688 7.957080364227295 124 104 97
0.19934652745723724 0.16521905362606049 7.126447677612305 205 208 189
0.09572598338127136 0.28033265471458435 7.157744407653809 138 146 149
0.2360624074935913 -0.46356913447380066 7.252320289611816 127 119 132
-0.19633620977401733 1.592450499534607 6.139538288116455 42 50 39
0.22349178791046143 0.09663058072328568 7.11817741394043 86 85 103
-0.0646771788597107 -0.18724437057971954 7.089004993438721 99 111 111
0.1016777902841568 -0.2647802531719208 7.116251468658447 84 71 81
0.05160846561193466 1.7590866088867188 6.074554920196533 82 81 79
-0.2386428713798523 1.649558663368225 6.182646751403809 73 88 91
0.1202549934387207 0.2454233020544052 7.13967752456665 52 77 118
-1.0811833143234253 1.3707056045532227 6.654995441436768 122 90 105
0.41796091198921204 -0.3878501057624817 7.287353515625 187 180 174
0.0033533270470798016 -0.19677379727363586 7.090450763702393 143 145 166
0.41483330726623535 0.3353247344493866 7.304173946380615 137 142 136
0.3443511724472046 -0.12369301170110703 7.147395610809326 36 33 42
0.4458644986152649 -0.1251613199710846 7.202144622802734 92 81 97
0.06181845813989639 -0.17293331027030945 7.091851234436035 23 35 77
-0.12429273128509521 1.1165529489517212 6.434956073760986 140 121 140
0.11759893596172333 1.4181382656097412 6.6604180335998535 82 84 97
0.23774860799312592 0.42711731791496277 7.259068489074707 60 59 93
-0.014748667366802692 1.1781916618347168 6.472763538360596 39 47 66
-0.18633806705474854 1.613674283027649 6.146755695343018 105 127 141
-0.6830527782440186 1.005744218826294 7.403828144073486 82 79 88
-0.18300004303455353 1.7611488103866577 6.116940975189209 90 90 82
-0.7664536833763123 1.5055553913116455 6.229757785797119 93 68 71
0.09572598338127136 0.28033265471458435 7.157744407653809 109 134 131
-0.8125442266464233 0.5712671875953674 7.942366123199463 59 52 60
-0.21020647883415222 -0.34097930788993835 7.1608662605285645 57 58 53
0.0804734081029892 0.21988408267498016 7.123847961425781 54 87 120
-0.7406752705574036 1.6529814004898071 6.269057750701904 54 63 68
0.24026478826999664 -0.024598103016614914 7.10239839553833 130 125 105
0.2642132043838501 -0.3694685399532318 7.1970438957214355 49 53 100
0.4411108195781708 0.19133464992046356 7.240746021270752 87 77 75
-0.2045881599187851 1.331316590309143 6.350695610046387 40 41 43
0.599098801612854 0.0899682566523552 7.3361310958862305 91 77 92
0.4000854790210724 -0.29687219858169556 7.226373672485352 41 42 44
0.21855546534061432 1.3178753852844238 7.181429386138916 79 90 108
-4.1372857093811035 3.111599922180176 9.018735885620117 37 35 46
0.5025063753128052 0.022573677822947502 7.244246482849121 129 109 118
0.6666672229766846 -0.5884537100791931 7.600318431854248 57 65 78
0.559701681137085 0.10459530353546143 7.3077392578125 143 134 155
-0.18215049803256989 1.6971074342727661 6.1377434730529785 179 169 160
-1.1011818647384644 1.2458785772323608 6.729511260986328 53 57 56
0.16147346794605255 -0.2720387279987335 7.12091588973999 124 122 127
-0.9404433965682983 0.8627744317054749 7.360250949859619 38 48 49
-0.15450157225131989 -0.2102627158164978 7.1106061935424805 84 73 77
0.2999441921710968 -0.2679165303707123 7.166433334350586 69 66 93
0.3997475504875183 0.18291600048542023 7.2092366218566895 40 37 64
-0.07824423909187317 -0.29039353132247925 7.103157997131348 158 176 176
-0.13421382009983063 -0.0023660981096327305 7.0886101722717285 34 35 65
0.15577128529548645 -0.3596397340297699 7.162585735321045 64 88 116
0.5878822207450867 -0.1737382709980011 7.3309478759765625 155 161 183
-0.038343437016010284 -0.6770970225334167 7.573877334594727 127 156 170
0.09272730350494385 -0.12808212637901306 7.0783233642578125 82 77 83
-0.09170552343130112 1.6028647422790527 6.079118251800537 36 41 44
0.02815195545554161 1.308732509613037 7.231050968170166 91 110 124
0.726836621761322 0.7681962251663208 8.0712890625 126 109 101
0.5148277878761292 -0.2958734929561615 7.309481143951416 222 207 202
0.5614746809005737 0.20112714171409607 7.335551738739014 52 52 60
0.3367280960083008 -0.23217841982841492 7.163343906402588 53 82 78
0.041470885276794434 -0.28925877809524536 7.114914894104004 119 125 121
-0.9626269936561584 1.632794737815857 6.332842826843262 91 76 71
0.06314451992511749 0.25816869735717773 7.134959697723389 82 78 101
0.12237509340047836 0.30520904064178467 7.164005756378174 70 61 64
0.3742668628692627 0.2933225929737091 7.24225378036499 218 230 230
0.015155189670622349 -0.642873227596283 7.483778476715088 128 151 185
-0.0471031554043293 1.2422648668289185 6.446399211883545 95 93 94
0.16314832866191864 -0.10667973756790161 7.087416172027588 77 73 87
-0.0686023011803627 0.018557162955403328 7.09091329574585 73 68 64
-0.08120732754468918 1.1746279001235962 6.442252159118652 28 29 47
0.24687042832374573 -0.21363849937915802 6.5236735343933105 168 159 154
-0.05100250244140625 -0.020703988149762154 7.106772422790527 111 130 144
0.12782354652881622 1.3412795066833496 7.0683746337890625 121 129 152
0.783507764339447 0.2749375104904175 7.696409702301025 167 157 147
-1.019838571548462 1.7106056213378906 6.3411970138549805 83 74 75
-0.3101450204849243 -0.12503309547901154 7.144618988037109 167 147 136
-0.08944318443536758 0.12813405692577362 7.100729465484619 167 154 135
0.026671208441257477 0.28948453068733215 7.14469051361084 46 37 40
0.6039838790893555 -0.15999636054039001 7.3476481437683105 149 151 140
0.3561249077320099 0.15011949837207794 7.176526069641113 42 51 66
-1.2727830410003662 1.4379253387451172 6.352571964263916 129 132 137
0.49852749705314636 0.2501755952835083 7.297767162322998 114 113 108
0.7042192220687866 -0.5215731263160706 7.6464433670043945 54 47 55
-0.15450157225131989 -0.2102627158164978 7.1106061935424805 30 32 29
-0.013289399445056915 -0.3090793490409851 7.1302266120910645 156 206 255
-0.8062382340431213 1.4587514400482178 6.268406391143799 141 175 187
-0.4815603494644165 1.6601670980453491 6.215848922729492 110 129 127
-0.878302812576294 1.5606441497802734 6.297247409820557 107 138 182
0.35858017206192017 0.07065591961145401 7.157094955444336 67 52 57
0.017047328874468803 0.949976921081543 8.008660316467285 83 62 67
-0.07646428048610687 0.025703473016619682 7.081828594207764 44 40 37
-0.4164815843105316 1.575156331062317 6.192756175994873 107 107 95
0.19627274572849274 1.3328595161437988 7.121002197265625 109 134 131
0.4560254216194153 -0.57341468334198 7.688387393951416 136 137 157
-0.02815529890358448 0.8078235387802124 7.695845127105713 65 61 86
0.35644638538360596 0.20197148621082306 7.189984321594238 31 37 73
-0.71124267578125 1.7222306728363037 6.248421669006348 47 49 62
0.21808524429798126 0.3143109977245331 7.193404674530029 113 130 122
0.02235710434615612 1.1064730882644653 7.2210235595703125 213 226 216
-0.0031441175378859043 -0.09944307059049606 7.064949989318848 48 35 63
-0.17346736788749695 0.1595565676689148 7.122806072235107 83 121 166
-0.76899653673172 1.5684714317321777 6.254696369171143 152 156 123
0.3790966868400574 -0.7905043959617615 7.72433614730835 107 97 106
-0.003991669975221157 -0.17757278680801392 7.093491554260254 94 80 97
-0.30634355545043945 -0.32933303713798523 7.222410678863525 86 75 83
-0.17138777673244476 -0.291874498128891 7.143417835235596 107 124 134
0.07031795382499695 1.1342928409576416 7.223506450653076 172 195 179
0.16314832866191864 -0.10667973756790161 7.087416172027588 89 79 87
0.3681389093399048 0.2135983407497406 7.203197002410889 145 153 164
-0.16727207601070404 0.1771310716867447 7.121964931488037 209 229 228
-0.9838902354240417 -0.5571749210357666 8.070887565612793 58 48 49
0.6297258138656616 0.02951466105878353 7.355921745300293 141 165 175
-0.15784792602062225 -0.11601954698562622 7.093077182769775 125 121 148
-0.3979354500770569 1.5127261877059937 6.159477710723877 54 60 84
0.7799968719482422 0.20001220703125 7.651149749755859 26 27 32
0.47519931197166443 0.21313655376434326 7.29338264465332 116 106 105
-3.042145013809204 1.866853952407837 6.027365207672119 119 140 167
0.3583706021308899 0.10317933559417725 7.168868541717529 58 48 49
-0.4653055667877197 1.4435148239135742 6.319591522216797 51 51 87
0.16744756698608398 0.040457483381032944 7.089944362640381 60 51 52
0.7558339238166809 -0.6990872025489807 7.5920610427856445 83 71 81
0.07218193262815475 0.2403220534324646 7.128079414367676 172 163 154
0.29034310579299927 -0.37384888529777527 7.20366907119751 71 87 110
0.17741119861602783 1.4263249635696411 6.678362846374512 90 97 90
-0.06760667264461517 1.3704248666763306 6.417683124542236 94 111 118
0.11621266603469849 0.3195372521877289 7.159916400909424 123 111 111
0.10467670857906342 0.32677337527275085 7.156368255615234 99 90 109
0.056248072534799576 0.028122495859861374 7.077049255371094 97 91 95
-1.129278540611267 1.5645451545715332 6.343883037567139 111 106 103
0.35270074009895325 0.3422774076461792 7.258967876434326 65 67 66
-1.6621267795562744 1.4638900756835938 6.488017559051514 76 68 66
0.5025781989097595 -0.09825225919485092 7.232791423797607 146 163 170
-0.20049765706062317 1.6218966245651245 6.076162338256836 117 103 103
0.9315916895866394 -0.6377463936805725 7.812154769897461 79 68 64
-0.183143749833107 -0.39212626218795776 7.199254989624023 71 57 56
0.631188154220581 1.6931344270706177 7.540652275085449 191 203 191
0.6189360022544861 -0.17587311565876007 7.3646440505981445 151 149 160
0.531665027141571 -0.10826714336872101 7.2545270919799805 23 22 27
-0.033809736371040344 -0.7502867579460144 7.69148063659668 125 106 100
-0.13117024302482605 -0.04420002922415733 7.098621368408203 62 52 63
-0.6656407713890076 1.264968991279602 6.927628040313721 90 103 112
-0.4679450988769531 1.709363341331482 6.301133155822754 129 111 109
0.09278544038534164 0.3812626898288727 7.191136360168457 144 153 170
0.6610442996025085 -0.45632824301719666 7.659967422485352 20 28 31
-0.09415265172719955 1.2548022270202637 6.431504726409912 44 74 136
0.2759840190410614 0.4485413730144501 7.297628402709961 33 41 87
0.7903252840042114 -0.007410062476992607 7.6887359619140625 182 206 190
-0.0542912483215332 -0.15446726977825165 7.085784912109375 166 178 164
-0.17300111055374146 -0.329068124294281 7.1568474769592285 102 109 101
0.17741119861602783 1.4263249635696411 6.678362846374512 109 94 97
0.19071412086486816 0.022466052323579788 7.088622570037842 122 147 141
-0.1519036740064621 -0.08689034730195999 7.0940399169921875 112 104 102
-0.15982183814048767 1.4562981128692627 6.390443801879883 229 240 226
0.27065539360046387 -0.3122631311416626 7.173389911651611 150 146 173
-0.006156282499432564 1.36769437789917 6.464060306549072 98 95 88
0.10980989784002304 0.3434273600578308 7.179213047027588 128 113 134
-1.0725146532058716 1.2906343936920166 6.679470539093018 38 52 81
0.06935763359069824 1.506946325302124 6.231808662414551 223 239 229
-0.019495004788041115 0.05507036671042442 7.075310707092285 102 97 91
0.18445439636707306 0.0010848190868273377 7.08527946472168 77 64 71
0.12569914758205414 0.18286065757274628 7.1159539222717285 49 50 52
0.6984204649925232 -0.8051313757896423 7.605788707733154 82 63 65
-1.5128099918365479 1.6395618915557861 6.4285736083984375 32 40 42
0.44372624158859253 -0.4179445803165436 7.34437894821167 113 138 142
0.36376261711120605 -0.14304576814174652 7.151549339294434 222 232 255
-0.27718162536621094 0.002189463470131159 7.135242938995361 35 57 68
-0.07047096639871597 -0.4418588876724243 7.203019142150879 196 182 169
-1.2409933805465698 1.6572065353393555 6.376722812652588 84 66 66
0.4654037356376648 -0.3156644403934479 7.273244857788086 134 168 214
-0.9168576598167419 1.4501378536224365 6.296626091003418 189 200 202
-1.4007699489593506 1.6620771884918213 6.429723739624023 46 74 98
0.03490991145372391 0.1355210393667221 7.090667724609375 61 59 64
0.2683591842651367 -0.030266596004366875 7.101031303405762 51 46 52
-0.26278993487358093 0.08498130738735199 7.137531757354736 95 106 100
0.6647056341171265 0.0780949592590332 7.539206504821777 105 85 96
-0.33044537901878357 0.013631647452712059 7.137947082519531 172 183 177
-0.5366093516349792 0.8340916633605957 7.988379955291748 45 47 44
-1.1452783346176147 1.3657811880111694 6.575006484985352 87 76 92
0.4564736783504486 -0.3414545953273773 7.2927021980285645 70 87 141
-0.007953627035021782 1.713194727897644 6.0996413230896 87 70 76
0.43946462869644165 0.1769264191389084 7.22388219833374 75 91 107
-1.0644468069076538 1.6385725736618042 6.36324405670166 36 64 104
-0.17300111055374146 -0.329068124294281 7.1568474769592285 170 182 180
0.4156104624271393 0.30896347761154175 7.271858215332031 78 110 135
-1.1574276685714722 1.6564967632293701 6.371996879577637 134 120 135
-0.10340908914804459 -0.4652579724788666 7.237668037414551 93 68 71
0.37342333793640137 0.27088335156440735 7.2482805252075195 125 118 108
-0.21979618072509766 0.20290610194206238 7.151045322418213 134 101 120
0.18951307237148285 -0.27404871582984924 7.089434623718262 135 126 155
0.36296388506889343 -0.10821657627820969 7.147833347320557 95 86 89
-0.9994423985481262 1.5873688459396362 6.745895862579346 132 139 145
0.4819243550300598 -0.0930430144071579 7.222583770751953 90 78 80
-0.21056745946407318 1.4738411903381348 6.275419235229492 90 106 132
0.23499839007854462 -0.198486328125 7.153768539428711 134 155 158
0.04465588554739952 0.11437088251113892 7.090983867645264 122 92 104
-0.6179473996162415 1.4696640968322754 6.227784633636475 100 129 163
-0.1678280383348465 1.561963438987732 6.106103897094727 117 102 105
0.4970411956310272 -0.5436840057373047 7.6913652420043945 135 131 148
0.1972583830356598 -0.5066289901733398 7.279817581176758 172 145 128
0.023597806692123413 0.30721062421798706 7.159378528594971 40 44 91
0.4951378405094147 -0.1579262763261795 7.2361674308776855 144 168 172
-0.35405412316322327 0.1930995136499405 7.209479331970215 173 178 184
-0.9293462038040161 1.3677637577056885 6.607909679412842 166 178 164
-0.43940091133117676 -0.12617962062358856 7.225581169128418 197 224 254
-0.9442597031593323 1.2810747623443604 6.700930595397949 80 69 67
0.31348562240600586 1.4600489139556885 6.664897918701172 70 76 98
0.7550126314163208 -0.7447503805160522 7.6006340980529785 67 71 74
-0.1410057246685028 -0.09676384925842285 7.100215435028076 115 92 102
-1.2071224451065063 1.6077673435211182 6.453530788421631 88 76 90
-0.9732844829559326 1.471848726272583 6.280655860900879 41 46 49
-0.06589405238628387 1.1568934917449951 6.448082447052002 51 54 35
-0.49291643500328064 -0.08663835376501083 7.244933128356934 79 81 68
-0.9335471987724304 1.5365468263626099 6.30885124206543 73 72 88
0.011734873056411743 -0.06361254304647446 7.076746463775635 125 112 132
0.5816730260848999 0.26246482133865356 7.403659820556641 150 161 181
0.0021403073333203793 -0.16564498841762543 7.09198522567749 105 94 88
-2.90889835357666 1.7376928329467773 5.758655548095703 95 93 94
-0.23053652048110962 0.15920469164848328 7.125971794128418 44 38 48
0.31348562240600586 1.4600489139556885 6.664897918701172 73 57 58
0.568899393081665 -0.14391596615314484 7.281577110290527 126 123 104
0.17851786315441132 -0.07016131281852722 7.080248832702637 173 147 124
-0.026125870645046234 -0.17968310415744781 7.092153549194336 130 160 158
0.009611054323613644 -0.44244903326034546 7.203475475311279 11 15 14
-0.2243044525384903 1.6547385454177856 6.152536869049072 128 139 169
0.13435551524162292 0.3291260898113251 7.179327487945557 89 115 132
-1.0949558019638062 1.3394038677215576 6.620349407196045 93 83 91
-1.4005281925201416 1.629120945930481 6.450268268585205 101 122 165
0.5435324311256409 -0.16948503255844116 7.290144443511963 85 120 126
0.20284241437911987 -0.3381083011627197 7.163721561431885 80 73 91
0.5936942100524902 0.1231246218085289 7.350175380706787 160 166 162
-0.04667878895998001 -0.8304747343063354 7.617606163024902 138 153 172
0.20452815294265747 -0.42601436376571655 7.201048374176025 107 132 139
-0.9338452219963074 1.2457703351974487 6.721717357635498 73 58 61
0.3995128571987152 0.2811513841152191 7.234374523162842 212 231 225
0.29684171080589294 0.365180641412735 7.225649833679199 158 137 120
-1.3764111995697021 1.4287676811218262 6.379248142242432 109 91 91
0.3121671676635742 0.3388079106807709 7.253053665161133 126 118 131
-0.021625302731990814 1.277098536491394 6.452322483062744 46 46 48
-0.11136424541473389 0.049403540790081024 7.10495138168335 80 82 97
0.6274663209915161 -0.8062630295753479 7.63188362121582 177 184 177
-1.1031910181045532 1.0975371599197388 7.307671546936035 83 70 77
0.022667296230793 -0.5876462459564209 7.354719161987305 107 94 111
-0.039199989289045334 0.4467257857322693 7.241283416748047 87 92 86
0.006252169609069824 -0.05442443862557411 7.088734149932861 83 96 86
0.052538640797138214 1.3193869590759277 7.245651721954346 102 98 113
-0.45669010281562805 -0.10356799513101578 7.226638317108154 121 109 113
-0.20089881122112274 1.0756616592407227 6.435948848724365 96 89 96
-1.6733392477035522 1.6582207679748535 6.4845871925354 21 21 19
0.0035753583069890738 -0.09077595919370651 7.078168869018555 77 102 124
0.3797907829284668 0.17005659639835358 7.1970062255859375 123 108 105
0.08747035264968872 -0.3029642701148987 7.1253342628479 125 121 148
-0.10175273567438126 0.3145487904548645 7.168893814086914 110 125 122
0.3390798270702362 -0.493253618478775 7.344928741455078 174 148 177
-0.27718162536621094 0.002189463470131159 7.135242938995361 193 176 166
-0.04468630626797676 1.4432364702224731 6.43157434463501 62 55 63
0.11254333704710007 -0.4483596682548523 7.207681179046631 120 102 114
-0.7839324474334717 0.912623405456543 7.372091293334961 157 146 162
0.12638816237449646 0.12983720004558563 7.107963562011719 85 73 75
-0.9111081957817078 -0.21868771314620972 8.065690040588379 120 141 160
-0.039199989289045334 0.4467257857322693 7.241283416748047 78 78 80
-0.17419184744358063 1.5920628309249878 6.106075763702393 137 138 132
-1.6261674165725708 1.5644816160202026 6.473266124725342 142 134 131
-0.794349730014801 1.2818316221237183 6.767776012420654 27 50 82
-0.2500231862068176 1.5286322832107544 6.125418186187744 80 98 122
-1.6261674165725708 1.5644816160202026 6.473266124725342 122 135 144
-1.0232070684432983 1.38642418384552 6.641424179077148 140 141 146
-1.1124470233917236 1.259927749633789 6.707785606384277 123 142 156
-0.13392013311386108 1.342469573020935 6.379201412200928 183 189 175
0.3140982687473297 0.2813190221786499 7.243717670440674 101 115 124
-0.02871398814022541 -0.2370411604642868 7.100581169128418 96 85 93
0.4112204313278198 0.2606869637966156 7.249209403991699 123 103 131
0.15069641172885895 1.435848593711853 6.664754867553711 130 125 131
0.6608436107635498 -0.906999945640564 7.649171829223633 154 172 172
-0.4132198691368103 -0.1024576872587204 7.19320011138916 88 80 91
0.12399318069219589 1.1731714010238647 7.1908063888549805 100 77 97
-0.47542357444763184 -0.08648060262203217 7.237757682800293 59 55 56
-0.49587008357048035 1.5355232954025269 6.165854454040527 48 45 52
-0.08081480115652084 0.9045584201812744 7.7335686683654785 72 68 65
0.07912979274988174 1.480583667755127 6.361728668212891 30 33 52
0.01998405158519745 1.437692642211914 6.516283988952637 55 53 56
-0.1720564216375351 1.3055881261825562 6.368089199066162 137 146 161
-0.1715061366558075 1.6664648056030273 6.11429500579834 152 160 181
-1.6299023628234863 1.5355968475341797 6.473100185394287 221 230 213
0.4972264766693115 -0.08446399122476578 7.223025321960449 75 93 117
0.08676664531230927 1.3400180339813232 7.072566032409668 126 110 111
-0.4563583433628082 1.4735798835754395 6.258265972137451 91 82 129
-1.025445818901062 1.285507082939148 6.685896873474121 34 54 89
-0.101603664457798 0.25073516368865967 7.151094436645508 124 129 148
0.5189600586891174 0.03845608979463577 7.2460527420043945 147 161 174
0.29663223028182983 0.1453937590122223 7.137763977050781 113 98 101
-0.09097262471914291 1.2907918691635132 6.417070388793945 168 158 131
-0.0031441175378859043 -0.09944307059049606 7.064949989318848 102 143 145
-1.4182335138320923 1.4318301677703857 6.401752471923828 133 129 144
-2.3578848838806152 1.5308960676193237 5.011671543121338 99 113 126
-0.37710803747177124 1.496164083480835 6.136323928833008 161 151 124
0.1246115043759346 0.2867386043071747 7.149655818939209 69 56 65
0.7223408818244934 -0.7720246315002441 7.623391151428223 57 61 108
0.2769662141799927 -0.33741819858551025 7.182861804962158 101 85 95
-0.2966556251049042 0.10581605136394501 7.1264166831970215 108 90 114
-0.9597322344779968 0.9529995322227478 7.364574432373047 141 121 132
-0.9111517071723938 1.2837226390838623 6.707419395446777 165 174 171
-0.45669010281562805 -0.10356799513101578 7.226638317108154 166 194 197
-0.25641122460365295 1.3693875074386597 6.334654331207275 169 145 121
0.2207188904285431 1.2881323099136353 7.186896800994873 118 101 120
-0.13421382009983063 -0.0023660981096327305 7.0886101722717285 44 45 40
-0.1656218320131302 -0.3888487219810486 7.192707061767578 78 123 156
0.21771179139614105 -0.4944029152393341 7.279261589050293 166 185 181
-0.19167856872081757 0.26217666268348694 7.171319007873535 106 93 102
-0.4720677435398102 -0.1507224142551422 7.238052845001221 54 57 88
0.3557029366493225 -0.35989314317703247 7.2333526611328125 165 184 178
-0.05112310126423836 -0.47522321343421936 7.240213871002197 48 65 111
0.735198438167572 0.5707029700279236 8.010729789733887 99 105 101
0.0342465341091156 0.9529982209205627 7.651257514953613 51 54 35
0.5898371338844299 -0.14434140920639038 7.3193678855896 107 115 117
-0.10097774118185043 1.0841952562332153 6.460886478424072 140 118 131
0.06639888882637024 1.0589088201522827 7.503560543060303 56 77 106
0.1919562667608261 1.4210484027862549 6.699527740478516 102 110 113
0.30465272068977356 0.414599746465683 7.287853717803955 62 77 84
-0.9832469820976257 1.2672947645187378 6.694100856781006 44 73 105
0.5960791707038879 0.10574814677238464 7.335951805114746 194 205 199
-2.2594709396362305 1.5163193941116333 5.017290115356445 15 22 30
-0.1475820094347 1.6949822902679443 6.134984016418457 80 75 79
0.20347638428211212 -0.3011125922203064 7.142653465270996 108 119 115
0.22576306760311127 0.3462490439414978 7.209534168243408 107 132 139
-1.6741549968719482 1.3844650983810425 6.540453910827637 109 103 115
-0.15148617327213287 -0.18705999851226807 7.105703353881836 122 107 114
-0.028255276381969452 -0.21010911464691162 7.095693111419678 169 153 153
-0.24178151786327362 -0.1437651813030243 7.121760368347168 104 110 124
0.6993631720542908 -0.8239949941635132 7.579496383666992 44 38 48
-0.3026064932346344 0.005729180295020342 7.143561363220215 100 88 108
0.07247522473335266 0.18768471479415894 7.121964454650879 151 139 159
0.336525022983551 0.15213847160339355 7.175312042236328 62 58 72
-0.3413276970386505 1.608648657798767 6.151988983154297 68 65 72
0.27802136540412903 -0.4037497341632843 7.220827102661133 175 186 192
-0.7677739262580872 1.1154005527496338 7.418249130249023 195 197 173
-0.42075246572494507 -0.828275740146637 7.899686336517334 129 139 138
-0.21456807851791382 -0.30003291368484497 7.151081562042236 112 116 93
-0.3430730700492859 -0.17693085968494415 7.1731648445129395 195 178 160
-0.8857703804969788 1.3290035724639893 6.7080535888671875 119 91 88
-0.6090771555900574 1.6937401294708252 6.214046478271484 71 98 107
-0.17794542014598846 -0.20332561433315277 7.104110240936279 103 92 98
0.11144834011793137 0.1880485713481903 7.114769458770752 104 115 117
0.45602574944496155 -0.852189302444458 7.70276403427124 82 68 67
-0.794349730014801 1.2818316221237183 6.767776012420654 148 145 164
0.6094646453857422 -0.10152480751276016 7.334386348724365 126 151 191
-1.0990359783172607 1.4452382326126099 6.3247880935668945 47 51 62
0.061090629547834396 1.4462705850601196 6.570015907287598 66 58 71
-1.5771838426589966 1.4816633462905884 6.470192909240723 62 62 70
-0.019926272332668304 -0.3684561550617218 7.155205249786377 27 35 56
-1.6572641134262085 1.5502873659133911 6.4886155128479 141 150 165
0.4876677691936493 0.30922695994377136 7.3275651931762695 87 76 92
-0.27310338616371155 -0.1284928321838379 7.137300968170166 36 34 39
0.30354583263397217 -0.5218197107315063 7.364325523376465 164 175 179
0.07991404086351395 -0.3516036570072174 7.146399021148682 60 44 45
-0.6359283328056335 1.5347447395324707 6.220696926116943 53 48 52
-0.1317862868309021 1.0564924478530884 6.461860656738281 167 172 166
-0.8022283911705017 1.3281773328781128 6.755695343017578 101 106 102
-0.3998963534832001 1.4453513622283936 6.353318214416504 79 86 96
0.13240228593349457 -0.4033476412296295 7.183178424835205 99 83 93
-0.12039892375469208 0.881824254989624 7.724236011505127 54 66 106
-0.24504567682743073 1.480225682258606 6.305837154388428 68 64 63
0.09105002135038376 1.4907454252243042 6.331995964050293 95 105 114
0.6201454997062683 1.2253913879394531 7.667877197265625 67 75 86
-0.024922536686062813 -0.7138371467590332 7.650736331939697 124 115 118
0.14483948051929474 -0.24181300401687622 7.1059746742248535 99 77 80
0.42235302925109863 1.6879463195800781 6.963318347930908 22 25 60
-0.20885717868804932 0.15663088858127594 7.125396728515625 66 70 97
-1.009029746055603 1.2483347654342651 6.707190036773682 76 62 59
0.5562226176261902 0.3317936062812805 7.425903797149658 110 128 130
-0.23494967818260193 0.9980756044387817 7.368399143218994 90 114 160
-0.19765640795230865 -0.35566964745521545 7.181328773498535 49 50 52
-0.1591089367866516 -0.06373751908540726 7.092868804931641 146 128 140
0.11029338091611862 0.03368467465043068 7.082285404205322 102 96 130
-0.004504815675318241 0.1961521953344345 7.11133337020874 89 73 76
-0.39955762028694153 1.4945133924484253 6.1473212242126465 113 153 163
0.03239329531788826 0.26269057393074036 7.150652885437012 134 129 125
-0.03447394445538521 0.29996258020401 7.166839122772217 127 117 142
-0.905560314655304 1.4582380056381226 6.274007797241211 46 54 65
0.5449519157409668 0.03316877409815788 7.2834882736206055 134 133 147
-1.5544501543045044 1.3558038473129272 6.589846134185791 123 105 105
-0.4829743802547455 1.6307204961776733 6.197808742523193 102 90 94
0.11659149825572968 1.4400966167449951 6.63379430770874 127 112 117
0.7820132374763489 -0.1601789891719818 7.634920120239258 132 140 129
-0.39099428057670593 -0.04561666026711464 7.176723003387451 125 103 105
0.7977490425109863 -0.21849822998046875 7.653324127197266 142 135 153
-0.06182355433702469 -0.11267363280057907 7.082640171051025 66 70 73
0.6137921214103699 0.18549461662769318 7.401067733764648 75 80 120
-0.9519580006599426 0.8244325518608093 7.270517826080322 99 114 119
0.4909876585006714 0.2274419069290161 7.281219005584717 105 92 83
0.3661320209503174 -0.47637343406677246 7.333792686462402 73 108 148
-0.93030846118927 1.0240384340286255 7.299767017364502 92 87 84
-0.10869240760803223 1.526553750038147 6.078197956085205 120 109 107
-0.14211083948612213 -0.4947984516620636 7.29335355758667 127 105 118
0.23756536841392517 1.4166405200958252 6.721895694732666 117 94 102
-0.11629848182201385 0.31721824407577515 7.16901159286499 42 50 39
-0.22486045956611633 -0.15719757974147797 7.11036491394043 24 28 29
0.0024818256497383118 0.07790066301822662 7.08622932434082 138 119 138
-0.37657153606414795 -0.14372943341732025 7.188193321228027 166 177 163
0.6137921214103699 0.18549461662769318 7.401067733764648 170 182 172
-0.16483013331890106 1.6226837635040283 6.132882118225098 105 129 133
-0.26239511370658875 0.05192217603325844 7.125184059143066 117 108 109
0.10548599809408188 -0.4283447563648224 7.198178768157959 24 28 29
-0.8916270732879639 1.2979457378387451 6.704577445983887 72 62 71
0.46349915862083435 -0.1565973162651062 7.228916645050049 121 102 88
-0.2698260247707367 1.7427340745925903 6.135849952697754 85 120 126
0.5136253833770752 0.17563219368457794 7.270524501800537 48 49 44
0.6605697870254517 -0.892463743686676 7.638821125030518 83 71 73
0.1961551308631897 -0.09864571690559387 7.093339920043945 146 127 120
-0.30051058530807495 -0.16668535768985748 7.1503167152404785 64 66 107
-0.10109548270702362 1.6751353740692139 6.124838829040527 106 132 149
0.37959831953048706 0.19984018802642822 7.205674648284912 133 135 124
0.6153585910797119 0.01620505005121231 7.348759651184082 75 93 117
0.23241929709911346 0.18685290217399597 7.15260648727417 116 119 138
-2.5400004386901855 1.6117860078811646 5.33754825592041 61 60 76
-0.08162610232830048 -0.1556517332792282 7.088302135467529 142 122 124
0.3651078939437866 0.3258558213710785 7.2648444175720215 65 71 71
0.7267056703567505 0.8766285181045532 7.71198034286499 167 178 180
-0.027346467599272728 -0.4608389437198639 7.225090503692627 92 81 85
0.5739552974700928 0.2236025333404541 7.378172397613525 62 61 59
-0.36885005235671997 0.034080490469932556 7.164925575256348 95 82 89
-0.13470539450645447 0.254431813955307 7.135901927947998 53 60 70
-0.16577638685703278 -0.4413282573223114 7.243323802947998 99 74 78
0.17851786315441132 -0.07016131281852722 7.080248832702637 113 99 99
-0.1760457456111908 1.1214752197265625 6.400885105133057 95 82 89
0.3332236707210541 1.4197354316711426 6.7869648933410645 91 79 89
-0.7570135593414307 1.310875654220581 6.786709308624268 51 56 59
-0.1650766134262085 -0.6214410662651062 7.5106024742126465 143 143 155
-0.7441172003746033 1.4881659746170044 6.231775283813477 64 84 109
0.12221130728721619 -0.8397989869117737 7.768150329589844 200 205 198
1.0087320804595947 0.8532237410545349 8.122429847717285 107 138 167
-0.08909717202186584 -0.14085672795772552 7.093902111053467 242 233 228
-0.1151261180639267 -0.6774148941040039 7.673891544342041 80 64 65
-1.0452675819396973 1.1377754211425781 7.336198329925537 114 90 86
0.20608751475811005 0.35916194319725037 7.21682596206665 101 130 170
-0.046820878982543945 0.31732890009880066 7.162417411804199 69 63 75
0.46513083577156067 0.3224351704120636 7.314534664154053 84 71 80
-0.5353447794914246 1.6503894329071045 6.201028823852539 95 73 76
-1.002529501914978 1.3313148021697998 6.688875198364258 108 113 117
-0.3225206434726715 1.581445336341858 6.169572830200195 129 159 170
-0.20885717868804932 0.15663088858127594 7.125396728515625 102 84 82
-0.21220117807388306 1.0442512035369873 6.4406232833862305 82 83 75
0.006237109191715717 1.2391098737716675 6.47316837310791 60 99 158
0.017047328874468803 0.949976921081543 8.008660316467285 49 55 55
-0.9927776455879211 1.3981701135635376 6.455151081085205 184 184 184
0.3128826916217804 -0.03478439524769783 7.13411283493042 82 69 76
0.03715319186449051 -0.421505331993103 7.19862699508667 88 69 65
-0.13829338550567627 -0.027662333101034164 7.091376781463623 127 116 122
0.5363078117370605 -0.29997017979621887 7.339407444000244 186 185 154
0.12129203975200653 -0.38506147265434265 7.168023109436035 128 133 111
0.31600162386894226 -0.3919403851032257 7.240386962890625 97 87 98
-0.13252730667591095 1.5358067750930786 6.081546306610107 140 115 110
0.5259441137313843 0.03507582098245621 7.2604146003723145 129 108 103
0.2682930827140808 -0.4256972372531891 7.229532241821289 97 88 89
-0.03678598627448082 1.4305486679077148 6.470029354095459 84 73 81
0.6341116428375244 1.0997763872146606 7.716513633728027 32 31 36
-0.15836933255195618 1.3772212266921997 6.383874893188477 90 82 80
-1.3786203861236572 1.5272809267044067 6.397985935211182 194 176 162
0.42777013778686523 -0.31093159317970276 7.22968864440918 62 62 112
0.4876677691936493 0.30922695994377136 7.3275651931762695 98 83 78
-0.8368242383003235 1.2747328281402588 6.744682312011719 214 205 196
-0.7001037001609802 1.4834535121917725 6.239497184753418 73 101 141
-0.7450568079948425 1.3660657405853271 6.8258957862854 94 77 95
-0.31680554151535034 -0.8120788335800171 7.893508434295654 46 62 87
-0.22379812598228455 0.18566130101680756 7.139749050140381 202 213 199
-0.09145639836788177 0.8375461101531982 7.741820812225342 60 88 135
-0.9832469820976257 1.2672947645187378 6.694100856781006 121 140 147
0.7077261805534363 -0.8631212711334229 7.587893486022949 80 73 67
-0.7247887849807739 1.3092541694641113 6.8225274085998535 119 151 172
-0.6026707887649536 1.5187748670578003 6.19162654876709 105 122 142
