ply
format ascii 1.0
element vertex 699
property float x
property float y
property float z
property uchar red
property uchar green
property uchar blue
end_header
-0.4747539162635803 1.4593656063079834 6.2521185874938965 120 118 139
-0.2229766696691513 0.18676131963729858 7.147957801818848 183 195 217
-0.7422884106636047 -0.811247706413269 8.068849563598633 35 40 69
0.07509977370500565 1.5143566131591797 6.124187469482422 140 123 133
0.8139685988426208 -0.6043674945831299 7.609201908111572 124 111 118
0.5633445978164673 1.1289037466049194 7.799818992614746 168 177 182
0.09487553685903549 0.17613637447357178 7.10223388671875 137 157 158
0.32224124670028687 -0.3887045681476593 7.196763515472412 32 40 61
-0.10014723241329193 -0.1752633899450302 7.091676712036133 153 169 159
0.6002358794212341 -0.2509725093841553 7.349281311035156 91 117 132
-0.2984383702278137 0.24827861785888672 7.19373893737793 138 121 129
0.5959932804107666 0.12367111444473267 7.351072788238525 61 69 115
0.3476909399032593 1.4656805992126465 6.697004795074463 62 63 58
0.3094111680984497 1.4163321256637573 6.760232925415039 67 71 82
0.4952327311038971 0.3779654800891876 7.395453929901123 78 58 47
-0.36933469772338867 1.4434669017791748 6.326324939727783 57 55 56
0.3652046024799347 -0.2068132758140564 7.146076202392578 123 115 112
0.22265967726707458 1.3708977699279785 6.910794734954834 149 155 151
-0.5035459399223328 1.3794505596160889 6.63127326965332 50 53 58
-1.163116455078125 1.2720060348510742 6.743171691894531 166 154 140
-0.40413960814476013 1.452593445777893 6.325428485870361 188 197 176
-0.42829766869544983 0.9528127312660217 7.312917232513428 120 116 130
0.47606250643730164 0.04687316343188286 7.186970233917236 32 40 53
-0.7228713631629944 -0.6935744285583496 8.0413179397583 46 54 65
-0.055590350180864334 0.42456385493278503 7.20170259475708 57 97 133
-0.370853453874588 0.12323043495416641 7.193483829498291 228 241 232
-0.770520806312561 0.9572440981864929 7.4687652587890625 176 168 165
-0.3638041913509369 0.10672267526388168 7.176895618438721 138 126 148
0.05948039889335632 0.3032183051109314 7.128862380981445 60 94 121
0.05948039889335632 0.3032183051109314 7.128862380981445 32 55 86
0.6666749119758606 -0.5924816131591797 7.652895450592041 155 174 168
-0.026761241257190704 0.21251928806304932 7.0986409187316895 88 105 113
0.5864369869232178 1.2758644819259644 7.762636661529541 87 102 109
-0.08067027479410172 0.3481013774871826 7.190250873565674 65 70 73
0.5723446607589722 -0.8140218257904053 7.6642889976501465 124 138 125
0.3159545660018921 -0.5319070816040039 7.367977619171143 184 197 180
-0.7834142446517944 -0.7576748728752136 8.10401439666748 90 88 75
-0.08245503157377243 0.03268659487366676 7.0698628425598145 112 101 109
0.24151010811328888 1.0379412174224854 7.8630876541137695 179 173 161
0.6480974555015564 -0.7546175718307495 7.641112804412842 141 132 159
-0.3937336504459381 -0.23085887730121613 7.24711275100708 99 107 94
-1.114375114440918 1.3987457752227783 6.521168231964111 36 59 65
-0.8554164171218872 1.4482462406158447 6.361489772796631 121 151 175
-1.1877710819244385 1.3062206506729126 6.678796768188477 51 57 55
0.42836567759513855 -0.6997111439704895 7.720709323883057 164 176 190
0.5633445978164673 1.1289037466049194 7.799818992614746 163 170 162
0.15032652020454407 1.4658496379852295 6.4294538497924805 152 164 160
-0.27284085750579834 -0.3821011781692505 7.237428188323975 72 81 148
-0.15529195964336395 1.0381548404693604 6.392899036407471 115 106 107
-0.8187285661697388 1.3149999380111694 6.7782883644104 43 51 64
0.20752403140068054 -0.4392746388912201 7.214516639709473 100 88 108
0.3531121611595154 1.5381474494934082 6.582556247711182 186 212 249
0.3776780962944031 1.01897394657135 7.850627899169922 64 74 86
-0.04858528450131416 1.4248884916305542 6.403613090515137 166 174 176
-0.4954095780849457 1.4703291654586792 6.141935348510742 103 117 120
-0.7838097810745239 -0.33504149317741394 8.100077629089355 90 81 84
-1.1946128606796265 1.2549338340759277 6.855443477630615 128 138 130
-0.1220824345946312 -0.18985837697982788 7.090162754058838 24 45 108
0.20974038541316986 0.4336618483066559 7.261960029602051 153 168 197
0.2224976271390915 0.4548422694206238 7.280410289764404 153 169 185
-0.8601142168045044 0.12819375097751617 8.129496574401855 44 53 60
0.12952522933483124 -0.5893058180809021 7.386381149291992 189 175 162
-0.23281151056289673 1.3888943195343018 6.321421146392822 238 250 246
0.23993229866027832 0.7789115905761719 7.556619167327881 108 100 115
0.5019976496696472 -0.16982808709144592 7.205574989318848 228 245 239
-0.4633997976779938 -0.220550075173378 7.288421630859375 142 145 126
0.010529001243412495 1.4757494926452637 6.283536434173584 108 142 167
0.08315693587064743 1.42116379737854 6.581470012664795 86 75 79
0.44020378589630127 1.464821457862854 6.913457870483398 143 147 150
-0.6630744934082031 -0.7457447648048401 8.059808731079102 59 50 53
0.1608228236436844 -0.03585454076528549 7.068997383117676 169 175 161
-0.49308693408966064 1.4558125734329224 6.218438625335693 16 49 116
-0.18893373012542725 -0.15883156657218933 7.104388236999512 101 111 102
-0.8737693428993225 -0.8267951607704163 8.203743934631348 32 40 51
0.22197337448596954 -0.3018267750740051 7.1316609382629395 135 121 138
0.2527136504650116 1.445374608039856 6.676485061645508 181 204 198
0.1896892786026001 1.3417725563049316 7.017550945281982 130 156 181
-0.541881799697876 0.16609714925289154 7.36402702331543 122 96 105
0.4446106553077698 1.4528825283050537 6.921274662017822 81 96 99
0.5485348701477051 1.4602134227752686 7.2359466552734375 126 138 136
0.41382548213005066 -0.6533529758453369 7.73335075378418 123 119 110
-0.09258507192134857 1.2461315393447876 6.397916793823242 134 165 186
0.12756487727165222 0.28694429993629456 7.1438798904418945 152 176 178
-0.05279975384473801 0.4135194718837738 7.231236457824707 173 164 155
-0.7505542635917664 0.751507043838501 8.161441802978516 19 24 43
0.2759527862071991 -0.20318108797073364 7.097114086151123 66 52 49
0.1599593460559845 1.1946784257888794 7.235105991363525 142 137 167
0.25671109557151794 1.5791290998458862 6.3133721351623535 229 247 247
-0.46917858719825745 0.1943950057029724 7.276910305023193 29 33 60
-0.14534033834934235 -0.4948869049549103 7.3287787437438965 171 184 177
0.44501304626464844 -0.7416328191757202 7.687155723571777 44 61 91
-0.7513909935951233 -0.7559270262718201 8.07947063446045 28 38 39
-0.28660956025123596 1.2532349824905396 6.3340229988098145 135 131 120
-0.4260874390602112 -0.2284240424633026 7.255685329437256 128 127 123
0.44822177290916443 1.1044963598251343 7.795244216918945 133 163 199
0.08349285274744034 -0.31599393486976624 7.1019487380981445 24 27 42
-0.2220434844493866 0.12024844437837601 7.13128662109375 99 78 87
-0.1957438588142395 0.19665637612342834 7.137601852416992 61 68 94
-0.6925299167633057 1.5057648420333862 6.2123212814331055 170 174 157
-0.3607258200645447 -0.8322518467903137 7.987339019775391 109 130 131
0.22267457842826843 -0.36410218477249146 7.170456409454346 70 68 89
-0.532249391078949 1.4329978227615356 6.269826889038086 107 129 126
0.05650054290890694 1.6807225942611694 6.009484767913818 111 108 139
-0.8361407518386841 -0.2522892355918884 8.123873710632324 118 143 150
0.06484410911798477 0.4285535514354706 7.189624309539795 63 63 73
0.21045850217342377 -0.7990217804908752 7.7843852043151855 151 162 146
-0.7452890276908875 0.8304259777069092 7.45747709274292 136 114 103
-1.247071623802185 1.3318661451339722 6.674642086029053 79 66 60
-0.25550350546836853 -0.2502560019493103 7.162644863128662 141 158 148
-0.43140798807144165 0.07548176497220993 7.2381134033203125 43 39 36
-0.7911437153816223 0.3558199405670166 8.146356582641602 90 89 94
-0.477281779050827 0.1949913054704666 7.316605567932129 114 102 122
-0.26922616362571716 -0.27359598875045776 7.185978889465332 200 212 198
0.5992974042892456 -0.5296211242675781 7.681850910186768 65 62 115
0.14103247225284576 -0.7300039529800415 7.804616928100586 31 36 76
-0.7704495191574097 0.5298134088516235 8.183826446533203 45 58 102
-0.7609814405441284 0.4685898423194885 8.13226318359375 228 244 244
-0.5489946007728577 0.08186192065477371 7.336920261383057 112 102 111
0.27006796002388 1.0297499895095825 7.8052825927734375 46 54 57
-1.2134798765182495 1.366148829460144 6.609555721282959 127 122 102
-0.7847593426704407 0.4954190254211426 8.155318260192871 242 253 249
-0.4327181279659271 0.25051799416542053 7.303936004638672 31 69 114
-0.6756945252418518 1.6145278215408325 6.251767158508301 90 100 91
-0.8645004034042358 -0.3726987838745117 8.134109497070312 116 96 98
-0.556170642375946 0.7609884738922119 8.102619171142578 186 201 194
-0.07997166365385056 0.013377365656197071 7.077136039733887 125 107 103
-0.49832063913345337 1.4270826578140259 6.298303127288818 140 159 174
0.4606732428073883 -0.35972368717193604 7.301342487335205 84 72 122
0.05650054290890694 1.6807225942611694 6.009484767913818 43 56 75
0.5894138216972351 -0.05274147912859917 7.27047061920166 199 210 194
-0.9799222350120544 1.450002908706665 6.3529372215271 96 130 139
-0.7931320667266846 1.4098355770111084 6.610048294067383 20 31 49
-0.6894328594207764 0.838782548904419 7.47519588470459 110 125 122
-0.2715606093406677 0.19193783402442932 7.186097145080566 164 153 185
0.22247284650802612 1.290019154548645 7.192605972290039 87 71 72
0.36714062094688416 1.4857913255691528 6.694601058959961 55 57 82
-0.7094889283180237 -0.6549422144889832 8.065957069396973 47 48 68
-0.1502649039030075 -0.5768849849700928 7.405510902404785 60 66 126
0.20536530017852783 -0.3362567722797394 7.161115646362305 188 172 156
-0.06182431802153587 0.06787712872028351 7.086118698120117 145 129 113
-0.48640176653862 -0.05414922907948494 7.241933822631836 55 56 58
0.3714933395385742 -0.7307474613189697 7.751053333282471 130 123 107
-0.08604762703180313 1.0665562152862549 6.445518493652344 195 212 204
0.44422319531440735 0.09749206155538559 7.235636234283447 131 115 141
0.12756487727165222 0.28694429993629456 7.1438798904418945 182 194 174
0.09571812301874161 1.5184675455093384 6.100202560424805 197 179 177
-0.18352441489696503 0.026753855869174004 7.101940155029297 30 32 27
0.527449369430542 1.2824816703796387 7.800887584686279 83 71 75
-0.5210773348808289 1.4494247436523438 6.186795711517334 202 219 209
-0.6762996912002563 -0.5727300643920898 8.051051139831543 188 198 189
0.7436428070068359 -0.2915201485157013 7.629105567932129 150 128 104
-0.31999772787094116 1.465165376663208 6.230946063995361 60 60 58
0.2883358895778656 -0.23614391684532166 7.128176212310791 101 108 126
-0.375250905752182 -0.22156822681427002 7.213616847991943 210 202 189
0.5879576206207275 1.4115082025527954 7.35643196105957 148 161 151
-1.1569525003433228 1.297104835510254 6.706108093261719 168 189 194
0.5888210535049438 1.3751733303070068 7.60586404800415 26 46 44
0.23556262254714966 -0.2852642238140106 7.136547088623047 134 169 188
0.3285193145275116 -0.2725061774253845 7.152370929718018 48 36 38
0.148055762052536 -0.07721010595560074 7.072150707244873 92 74 72
0.11503133922815323 -0.056759998202323914 7.059219837188721 65 55 108
0.2395896315574646 -0.24377109110355377 7.11135721206665 184 197 179
0.29817789793014526 0.14545424282550812 7.1389994621276855 178 187 182
0.09215112030506134 -0.052971743047237396 7.059840202331543 143 127 101
0.148055762052536 -0.07721010595560074 7.072150707244873 49 53 101
0.38614752888679504 0.07019992172718048 7.1510772705078125 128 163 185
0.26946398615837097 -0.08445951342582703 7.081429958343506 139 145 145
-0.442392498254776 1.6410449743270874 6.190732002258301 84 68 79
-0.17575064301490784 1.2291538715362549 6.322892189025879 69 88 82
-0.10933466255664825 1.1748017072677612 6.364792346954346 97 115 137
0.36021798849105835 -0.05048190429806709 7.129916667938232 99 85 85
0.36021798849105835 -0.05048190429806709 7.129916667938232 23 35 75
0.15915074944496155 -0.30483877658843994 7.110067367553711 144 153 160
-0.016423219814896584 1.1664859056472778 6.405168056488037 136 171 191
0.019588662311434746 1.3309385776519775 6.4045515060424805 69 65 79
0.07113474607467651 -0.251284658908844 7.0889997482299805 36 43 85
0.39381644129753113 0.04933331161737442 7.1544904708862305 66 86 123
0.09474847465753555 -0.026511717587709427 7.070511817932129 51 59 121
-1.1643645763397217 1.045417070388794 7.324403762817383 152 163 155
0.21839620172977448 0.00011170392099302262 7.076717376708984 129 139 140
-0.3386821448802948 1.5633838176727295 6.105278015136719 140 140 128
-1.1170494556427002 0.9248418211936951 7.366830825805664 174 163 143
0.31563302874565125 0.21020673215389252 7.178919315338135 182 206 190
0.11796838790178299 0.1186172217130661 7.075039863586426 220 227 209
-0.13827107846736908 1.2769302129745483 6.327168941497803 75 101 124
0.41393327713012695 -0.37708109617233276 7.264655590057373 64 46 44
-0.03748887777328491 1.590907335281372 6.003148078918457 45 37 50
-0.12655602395534515 1.2471604347229004 6.340299606323242 107 129 126
0.2994539737701416 0.21207579970359802 7.133479118347168 120 150 178
0.38024812936782837 -0.30249089002609253 7.196357727050781 80 65 72
0.35105201601982117 -0.04161347076296806 7.12131404876709 229 241 239
0.18048377335071564 -0.20476947724819183 7.085770130157471 203 222 220
0.49261239171028137 0.13160370290279388 7.238751411437988 90 65 69
-0.1948879361152649 1.1724188327789307 6.320717811584473 116 102 101
0.3023049235343933 -0.30966973304748535 7.163221836090088 68 65 56
0.3810482919216156 0.03689499944448471 7.1486639976501465 119 102 110
-0.12117908149957657 1.2059674263000488 6.345856189727783 24 22 35
-0.3285381495952606 1.6644744873046875 6.099918365478516 113 130 122
-0.2126612812280655 -0.010299747809767723 7.09087610244751 75 84 89
-1.6685680150985718 1.4781213998794556 6.448148727416992 208 220 216
-1.1629568338394165 1.6538337469100952 6.325589179992676 43 80 63
0.11304977536201477 -0.11515042185783386 7.067200183868408 174 164 155
0.36679747700691223 -0.10801031440496445 7.1283392906188965 165 151 140
0.12943649291992188 0.2720058262348175 7.132017612457275 70 94 118
0.15009979903697968 0.1832786351442337 7.111379146575928 92 103 97
0.4904860556125641 0.10449738055467606 7.234780311584473 76 80 83
0.933533787727356 -0.03817814588546753 6.986659526824951 83 81 121
0.34112241864204407 0.20578765869140625 7.178982734680176 43 45 42
0.31437069177627563 -0.2824523150920868 7.149539470672607 87 112 116
-0.9799348711967468 1.473846673965454 6.237095355987549 141 151 163
-0.1754179745912552 1.1013100147247314 6.368066787719727 151 133 147
-1.7670671939849854 1.6562128067016602 6.456043243408203 31 69 114
0.0019164425320923328 1.3353670835494995 6.401544094085693 107 98 89
-0.1467699259519577 1.2602148056030273 6.3367838859558105 121 105 105
-0.12655602395534515 1.2471604347229004 6.340299606323242 41 67 124
0.4213065803050995 0.01686531864106655 7.16638708114624 99 113 126
-0.1646251082420349 1.1806774139404297 6.336429119110107 157 165 168
0.17455023527145386 0.30786991119384766 7.162543296813965 136 139 130
-1.043999433517456 1.4857065677642822 6.298861026763916 205 193 193
-0.877494752407074 1.7752724885940552 6.382890701293945 149 155 151
-1.006646990776062 1.5971821546554565 6.304349899291992 152 164 160
-0.442392498254776 1.6410449743270874 6.190732002258301 135 133 144
-0.0069437893107533455 1.6244421005249023 5.965038299560547 58 59 79
0.0033503700979053974 -0.04015339910984039 7.056949615478516 151 128 148
0.3622420132160187 0.07055672258138657 7.1402363777160645 113 101 103
0.08358100801706314 -0.08203773200511932 7.059875965118408 175 191 188
0.27298200130462646 -0.2643490135669708 7.134817600250244 236 251 244
0.25513532757759094 0.08923686295747757 7.1120805740356445 162 165 180
-0.10246888548135757 1.2515876293182373 6.351831912994385 79 78 83
-1.3909550905227661 1.6249895095825195 6.431404113769531 59 57 97
0.11930090934038162 0.38093850016593933 7.208100318908691 97 115 125
0.2710282504558563 0.08614148944616318 7.126543998718262 107 120 111
0.15587462484836578 -0.2039816528558731 7.077707290649414 155 172 166
0.4199250042438507 0.34989628195762634 7.306385517120361 57 58 60
-1.0369739532470703 0.8949912786483765 7.386218547821045 93 90 85
0.33046987652778625 -0.09208095073699951 7.1121392250061035 70 99 115
0.20580261945724487 1.3905236721038818 6.690098285675049 95 83 133
0.4199250042438507 0.34989628195762634 7.306385517120361 77 84 66
-0.1646251082420349 1.1806774139404297 6.336429119110107 69 54 57
-0.07305081188678741 1.1465919017791748 6.390580654144287 38 62 100
0.49136555194854736 -0.29283398389816284 7.2837815284729 150 169 184
0.5013216137886047 -0.13144992291927338 7.2254414558410645 55 55 67
0.09417589753866196 -0.2556270360946655 7.079084873199463 132 111 110
0.10594584792852402 -0.08453529328107834 7.059351444244385 102 91 99
-1.014764428138733 -0.24174262583255768 8.202303886413574 94 93 89
0.3578867018222809 0.040281977504491806 7.12623405456543 166 178 164
0.4837609827518463 0.18050585687160492 7.2591376304626465 145 148 121
0.4425053000450134 0.176936537027359 7.213523864746094 37 49 65
-1.0895142555236816 1.5234453678131104 6.315084457397461 148 161 154
-1.563522219657898 1.333644986152649 6.765615940093994 72 62 112
0.23824487626552582 -0.07826021313667297 7.088625431060791 153 166 159
-0.8770361542701721 1.4827207326889038 6.218827247619629 119 152 183
-0.037246692925691605 1.1640304327011108 6.397073268890381 152 167 160
0.4454575479030609 0.05396744981408119 7.187126636505127 152 165 174
-0.19967803359031677 1.0772751569747925 6.3803863525390625 151 164 173
0.49809274077415466 -0.31837016344070435 7.3029608726501465 70 66 103
-0.41349467635154724 1.631396770477295 6.146456718444824 66 57 62
-0.08716218918561935 1.6699098348617554 5.807595252990723 173 156 136
0.17439281940460205 -0.2859300971031189 7.109201431274414 171 171 169
0.322479784488678 -0.3000875413417816 7.166244029998779 110 112 133
-0.46442291140556335 1.6420021057128906 6.152006149291992 69 66 93
0.5469602346420288 0.20472292602062225 7.32267951965332 53 48 55
-0.12071775645017624 1.2130149602890015 6.355993270874023 69 95 146
0.3123854696750641 -0.18758997321128845 7.130650997161865 61 56 63
-0.12722507119178772 0.07184293866157532 7.069644927978516 128 109 111
0.3146403133869171 0.3887133300304413 7.268321514129639 126 111 108
-0.842488706111908 1.7225490808486938 6.217632293701172 123 128 124
0.4916982054710388 -0.1130995899438858 7.215868949890137 110 104 108
0.05960553139448166 -0.032804448157548904 7.044836044311523 97 91 93
-1.1038422584533691 1.0855647325515747 7.354488849639893 183 192 189
0.20240917801856995 0.0744796097278595 7.0815348625183105 105 93 97
0.41393327713012695 -0.37708109617233276 7.264655590057373 76 59 65
0.43650057911872864 -0.3205445110797882 7.248428821563721 180 186 174
0.5056077837944031 -0.09810668975114822 7.22011661529541 118 136 136
-0.16690480709075928 -0.29068538546562195 7.1294474601745605 97 135 174
-0.20779040455818176 1.633573055267334 6.0789008140563965 111 150 179
0.15840008854866028 -0.2568358778953552 7.095944404602051 68 89 110
0.4746529757976532 -0.12497927993535995 7.206503391265869 99 110 130
0.25840115547180176 -0.16885900497436523 7.10572624206543 81 99 147
-0.11186499148607254 1.2310644388198853 6.352972507476807 96 85 93
-0.703283965587616 1.5882233381271362 6.166865348815918 24 21 30
-0.02552797831594944 1.7534245252609253 6.002738952636719 55 72 124
0.18964481353759766 -0.08878521621227264 7.072503089904785 64 52 64
0.11914028972387314 -0.1873791515827179 7.078241348266602 123 145 132
-0.7875612378120422 1.2368816137313843 6.7826666831970215 128 163 185
0.4582878053188324 -0.289935439825058 7.244548797607422 61 67 117
-0.14761777222156525 1.333455204963684 6.3168463706970215 70 69 65
0.058235928416252136 1.7396163940429688 5.980747222900391 55 54 52
0.23813699185848236 0.04381181299686432 7.093713283538818 156 156 148
0.44617724418640137 0.2721620202064514 7.277353286743164 138 133 153
0.20344296097755432 0.16505631804466248 7.109278678894043 53 60 52
0.26763275265693665 -0.17510060966014862 7.09647798538208 144 165 160
0.002212026622146368 1.600117802619934 6.007489204406738 97 88 89
-0.703283965587616 1.5882233381271362 6.166865348815918 167 162 158
0.22506308555603027 -0.02013043873012066 7.082003116607666 133 134 136
0.42180752754211426 -0.35927119851112366 7.260928630828857 93 105 121
-0.10841421037912369 1.1392654180526733 6.359865188598633 15 27 23
0.3713628053665161 0.2135775238275528 7.191834926605225 122 147 167
-0.2454749494791031 -0.018033906817436218 7.108037948608398 48 53 73
-0.03599824383854866 0.024000825360417366 7.057724475860596 59 85 122
0.5170531272888184 -0.11745335906744003 7.236213684082031 66 68 63
-0.9172775745391846 0.4888056814670563 8.197004318237305 98 115 105
0.5795219540596008 0.03377770632505417 7.306955814361572 61 46 65
-0.025853008031845093 -0.27705538272857666 7.0918049812316895 118 112 112
0.23185241222381592 -0.7623218894004822 7.765141010284424 195 198 179
0.25840115547180176 -0.16885900497436523 7.10572624206543 44 49 68
0.3680895268917084 0.054665666073560715 7.147495269775391 100 88 100
0.3680895268917084 0.054665666073560715 7.147495269775391 91 80 84
0.5720769762992859 -0.024324743077158928 7.290574550628662 79 63 74
-0.023231059312820435 -0.20923802256584167 7.075685977935791 112 115 98
0.4311511814594269 0.32462278008461 7.292691707611084 172 180 165
0.4746529757976532 -0.12497927993535995 7.206503391265869 141 164 180
0.2066420465707779 0.09847291558980942 7.087644577026367 184 193 188
0.4837609827518463 0.18050585687160492 7.2591376304626465 76 106 130
-0.07185868918895721 -0.12723128497600555 7.066821098327637 156 162 178
0.2246522605419159 0.06960637867450714 7.090202331542969 139 155 144
-1.3079458475112915 1.599470615386963 6.488948345184326 161 172 164
0.42180752754211426 -0.35927119851112366 7.260928630828857 235 248 241
0.48050567507743835 0.2124401181936264 7.275024890899658 31 40 79
0.30885323882102966 -0.3355429470539093 7.1710638999938965 88 106 94
0.30938026309013367 -0.11791466921567917 7.030521869659424 161 177 174
0.38223522901535034 0.22548314929008484 7.20474100112915 115 112 107
0.4144505560398102 0.004947086796164513 7.159228324890137 126 124 111
0.48772215843200684 -0.048672016710042953 7.20532751083374 44 39 43
-0.9718813300132751 0.9196062684059143 7.3889031410217285 65 79 79
-0.0025413446128368378 1.3463680744171143 6.407567501068115 41 38 67
-0.1490965634584427 1.0758227109909058 6.376141548156738 79 80 84
-0.08965720981359482 1.216633677482605 6.367183685302734 34 58 70
0.48825228214263916 -0.06472580134868622 7.213380813598633 153 175 212
0.1923195719718933 -0.14364174008369446 7.077040195465088 59 59 71
0.15555496513843536 -0.6256978511810303 7.453012466430664 117 94 102
0.4995751678943634 0.19342954456806183 7.269010543823242 108 142 167
0.19180408120155334 -0.06781011074781418 7.072666168212891 119 100 106
-0.13343457877635956 -0.027136415243148804 7.074647426605225 64 78 113
-0.967879056930542 1.4770407676696777 6.238584518432617 189 172 164
0.5720769762992859 -0.024324743077158928 7.290574550628662 123 150 167
0.19146792590618134 0.3687233030796051 7.204989433288574 120 130 142
0.34364432096481323 0.4191606342792511 7.309363842010498 96 79 85
-0.09877018630504608 1.0575677156448364 7.319005489349365 102 78 100
0.4801005423069 0.0340534932911396 7.215575218200684 104 112 114
-0.11186499148607254 1.2310644388198853 6.352972507476807 148 161 154
-0.0069437893107533455 1.6244421005249023 5.965038299560547 81 69 83
0.23875412344932556 0.006734719034284353 7.083354949951172 132 130 141
0.4261671006679535 -0.37259408831596375 7.273197650909424 70 87 156
0.19180408120155334 -0.06781011074781418 7.072666168212891 30 28 41
-0.08962098509073257 0.0671328529715538 7.089402675628662 233 245 245
0.6014913320541382 0.09027992188930511 7.33473539352417 104 110 124
0.3392792046070099 0.04346313327550888 7.119800567626953 35 49 86
0.5400726795196533 0.021944671869277954 7.257592678070068 106 86 85
-0.10750474035739899 1.749243974685669 6.0404462814331055 45 44 40
0.18519380688667297 -0.3808209300041199 7.166166305541992 32 45 61
0.07395092397928238 -0.29463404417037964 7.094066143035889 24 34 44
0.3533797860145569 -0.1823984831571579 7.130148410797119 93 99 99
-0.13114456832408905 -0.07447638362646103 7.069140434265137 119 164 193
-0.9183854460716248 0.5972812175750732 8.204042434692383 226 244 244
0.3023049235343933 -0.30966973304748535 7.163221836090088 218 238 227
0.3444036543369293 0.11673016846179962 7.142295837402344 58 77 120
-0.6297539472579956 1.6335811614990234 6.148085117340088 24 25 30
-0.24054639041423798 0.10507231205701828 7.119973182678223 78 63 66
0.25738826394081116 -0.45145219564437866 7.236451625823975 74 88 89
0.4995751678943634 0.19342954456806183 7.269010543823242 50 51 72
-0.15561117231845856 0.21558822691440582 7.11749267578125 99 100 102
-0.049287501722574234 -0.20289698243141174 7.075978755950928 71 89 127
0.7983755469322205 0.27729204297065735 7.56541109085083 110 110 112
-0.24911276996135712 1.7080813646316528 6.084540843963623 107 91 94
0.2673877775669098 0.39804932475090027 7.254289150238037 104 80 104
-1.2061184644699097 1.6562591791152954 6.353804111480713 93 96 87
-0.6124794483184814 -0.8710364103317261 8.029212951660156 116 144 165
0.20344296097755432 0.16505631804466248 7.109278678894043 130 151 156
0.09945229440927505 0.2803966701030731 7.145809650421143 109 150 170
0.23953106999397278 -0.46251189708709717 7.239627838134766 124 108 119
-0.17980661988258362 1.5714179277420044 6.064183712005615 55 87 102
0.22768250107765198 0.09651049971580505 7.099392414093018 103 86 76
-0.059537533670663834 -0.18640205264091492 7.0690741539001465 168 173 167
0.10638492554426193 -0.26387664675712585 7.09551477432251 151 152 138
0.06617049127817154 1.7338995933532715 5.992598533630371 62 60 71
-0.22244365513324738 1.6292314529418945 6.111163139343262 161 172 164
0.12418007105588913 0.24536381661891937 7.125598430633545 125 110 115
-1.0752127170562744 1.3685274124145508 6.642041206359863 167 189 186
0.4209135174751282 -0.38722991943359375 7.2770867347717285 123 131 116
0.008403290063142776 -0.19597408175468445 7.0695695877075195 169 167 168
0.41723206639289856 0.33599233627319336 7.303369045257568 198 176 165
0.34826046228408813 -0.12342686951160431 7.127710342407227 139 157 169
0.4491991102695465 -0.1249488964676857 7.186568737030029 72 80 82
0.06673912703990936 -0.17226645350456238 7.070500373840332 112 122 131
-0.11198724061250687 1.1052792072296143 6.375475883483887 160 173 163
0.12539070844650269 1.409082293510437 6.61704158782959 104 112 114
0.24031123518943787 0.42780667543411255 7.25655460357666 203 225 213
-0.0037198744248598814 1.1668223142623901 6.414667129516602 61 58 69
-0.17001605033874512 1.5925559997558594 6.071774959564209 72 99 144
-0.688988208770752 1.0132778882980347 7.439950466156006 63 60 69
-0.16645917296409607 1.7379200458526611 6.040943145751953 148 125 109
-0.7487611174583435 1.4909895658493042 6.174252033233643 106 125 140
0.09945229440927505 0.2803966701030731 7.145809650421143 32 28 43
-0.8319457173347473 0.5823447704315186 8.03780746459961 101 114 123
-0.2060125768184662 -0.33968856930732727 7.149042129516602 180 148 133
0.08465110510587692 0.21981006860733032 7.108456134796143 120 139 133
-0.7240400910377502 1.6381417512893677 6.216131210327148 97 82 75
0.2446858286857605 -0.024531295523047447 7.0807695388793945 123 115 112
0.2680811583995819 -0.36851295828819275 7.179872989654541 183 197 184
0.4440097212791443 0.19143977761268616 7.232272624969482 25 29 41
-0.19081024825572968 1.3171939849853516 6.2881293296813965 38 38 48
0.6014913320541382 0.09027992188930511 7.33473539352417 108 102 102
0.40342122316360474 -0.2962900996208191 7.211611747741699 73 99 126
0.2210138738155365 1.31965172290802 7.18106746673584 62 72 64
0.5054258704185486 0.022648563608527184 7.233863830566406 90 134 171
0.6682007312774658 -0.5893856287002563 7.617661476135254 15 17 14
0.5622292160987854 0.10484526306390762 7.303868293762207 112 106 120
-0.16584500670433044 1.674994707107544 6.06267786026001 70 91 122
-1.0972408056259155 1.2453850507736206 6.723031997680664 103 107 118
0.16607403755187988 -0.27117010951042175 7.099544048309326 55 69 104
-0.948858916759491 0.8700515627861023 7.400389194488525 195 224 255
-0.14970192313194275 -0.20927584171295166 7.094372749328613 57 55 56
0.3039027750492096 -0.2672314941883087 7.147352695465088 88 103 106
0.40290310978889465 0.18290182948112488 7.197983264923096 64 81 107
-0.07319797575473785 -0.28924527764320374 7.083975315093994 159 171 171
-0.12937124073505402 -0.0019058737671002746 7.071889877319336 133 161 173
0.16007941961288452 -0.35854876041412354 7.143921375274658 45 54 95
0.5903710126876831 -0.17354655265808105 7.326199054718018 123 125 122
-0.03862278163433075 -0.6772778630256653 7.593327045440674 152 156 133
0.09772978723049164 -0.1275947242975235 7.055633068084717 80 60 71
-0.0753980427980423 1.5798581838607788 5.998291015625 127 117 141
0.029738634824752808 1.311885118484497 7.237159729003906 168 187 185
0.7222001552581787 0.7867029309272766 8.220523834228516 165 180 177
0.5175366401672363 -0.29551461338996887 7.301473617553711 112 123 119
0.5638362169265747 0.20161472260951996 7.335373878479004 51 46 53
0.34060120582580566 -0.23162934184074402 7.144078254699707 64 64 76
0.046283453702926636 -0.28822559118270874 7.0947794914245605 235 237 223
-0.9480768442153931 1.6216845512390137 6.2920732498168945 52 51 59
0.06717260181903839 0.2581474483013153 7.121109485626221 82 89 82
0.1260020136833191 0.30526262521743774 7.15255069732666 49 53 100
0.3771730959415436 0.2935387194156647 7.235105037689209 44 49 69
0.01611059159040451 -0.6425330638885498 7.494071006774902 226 249 233
-0.03564082458615303 1.230128288269043 6.387566566467285 119 141 154
0.16791975498199463 -0.10632512718439102 7.064706802368164 177 189 175
-0.06382399797439575 0.018894687294960022 7.073466777801514 32 43 63
-0.06934288889169693 1.1629348993301392 6.382967948913574 142 152 143
0.2654658854007721 -0.21179716289043427 6.404706001281738 160 140 116
-0.04640016704797745 -0.020261676982045174 7.090146541595459 60 84 120
0.13133518397808075 1.3409457206726074 7.058688163757324 198 207 202
0.7850362062454224 0.27785348892211914 7.736267566680908 87 73 73
-1.0059256553649902 1.6999388933181763 6.303469181060791 14 25 45
-0.3062787353992462 -0.12403978407382965 7.135653972625732 114 96 108
-0.0849418118596077 0.1283421814441681 7.085533142089844 195 202 208
0.030528344213962555 0.28956928849220276 7.132656574249268 51 63 77
0.6063992977142334 -0.15981219708919525 7.344508171081543 22 28 52
0.35961174964904785 0.15000982582569122 7.162114143371582 235 237 223
-1.261210322380066 1.4312844276428223 6.3254523277282715 117 150 195
0.5010669827461243 0.25057026743888855 7.294703006744385 96 107 109
0.705858051776886 -0.5224981307983398 7.667535781860352 88 94 94
-0.14970192313194275 -0.20927584171295166 7.094372749328613 193 181 169
-0.00854156631976366 -0.3079465329647064 7.111869812011719 134 134 132
-0.7893775105476379 1.445690631866455 6.216685771942139 64 74 86
-0.46442291140556335 1.6420021057128906 6.152006149291992 84 78 80
-0.8624264001846313 1.548247218132019 6.250523090362549 80 73 65
0.3622420132160187 0.07055672258138657 7.1402363777160645 213 226 216
0.00996430404484272 0.9638806581497192 8.090998649597168 99 97 98
-0.07148417830467224 0.026002535596489906 7.063357830047607 160 148 168
-0.3991405665874481 1.5566973686218262 6.1252923011779785 91 81 92
0.19931498169898987 1.3334215879440308 7.11514949798584 72 98 121
0.45670589804649353 -0.5742873549461365 7.713799476623535 69 66 61
-0.03195273503661156 0.8158209323883057 7.744149208068848 57 57 65
0.3597748279571533 0.20189911127090454 7.177475929260254 49 50 55
-0.6942905187606812 1.7062087059020996 6.1935625076293945 59 50 53
0.22142213582992554 0.3144128918647766 7.183417797088623 124 104 97
0.0242503322660923 1.108705759048462 7.224461555480957 205 208 189
0.00212289160117507 -0.0989508107304573 7.042781829833984 138 146 149
-0.16936777532100677 0.15996219217777252 7.111319065093994 127 119 132
-0.7519603967666626 1.5540841817855835 6.201333999633789 42 50 39
0.37932446599006653 -0.7921460270881653 7.751796722412109 86 85 103
0.0009900087025016546 -0.17682184278964996 7.0732502937316895 99 111 111
-0.3033832609653473 -0.32810506224632263 7.218472480773926 84 71 81
-0.16690480709075928 -0.29068538546562195 7.1294474601745605 82 81 79
0.07227903604507446 1.1365370750427246 7.226755619049072 73 88 91
0.16791975498199463 -0.10632512718439102 7.064706802368164 52 77 118
0.3713628053665161 0.2135775238275528 7.191834926605225 122 90 105
-0.16319651901721954 0.17750787734985352 7.110531330108643 187 180 174
-1.006780743598938 -0.5597841739654541 8.174455642700195 143 145 166
0.632056474685669 0.029800156131386757 7.355668544769287 137 142 136
-0.15294228494167328 -0.11527025699615479 7.076266765594482 36 33 42
-0.38005346059799194 1.493938684463501 6.089051723480225 92 81 97
0.781814694404602 0.20204593241214752 7.682381629943848 23 35 77
0.4777505099773407 0.21350787580013275 7.289867401123047 140 121 140
-3.0916080474853516 1.8891326189041138 6.100079536437988 82 84 97
0.3618914484977722 0.10309004038572311 7.153620719909668 60 59 93
-0.44984540343284607 1.4292527437210083 6.26129150390625 39 47 66
0.17199359834194183 0.04042710363864899 7.069116592407227 105 127 141
0.7576772570610046 -0.7002387642860413 7.606226921081543 82 79 88
0.07626805454492569 0.24026912450790405 7.1135125160217285 90 90 82
0.2940479516983032 -0.37294381856918335 7.187222003936768 93 68 71
0.18470238149166107 1.4175080060958862 6.635895729064941 109 134 131
-0.05575348809361458 1.3569235801696777 6.357933044433594 59 52 60
0.11984938383102417 0.31957191228866577 7.148419380187988 57 58 53
0.10833102464675903 0.32680249214172363 7.1448469161987305 54 87 120
0.06113236024975777 0.02822459489107132 7.056328773498535 54 63 68
-1.1161062717437744 1.5557118654251099 6.31026554107666 130 125 105
0.3554224371910095 0.3426879048347473 7.25425910949707 49 53 100
-1.661637544631958 1.4647834300994873 6.490809440612793 87 77 75
0.5056077837944031 -0.09810668975114822 7.22011661529541 40 41 43
-0.1830974668264389 1.5991493463516235 5.997257709503174 91 77 92
0.9338507056236267 -0.6403629183769226 7.850096702575684 41 42 44
-0.17937807738780975 -0.3908165991306305 7.189755439758301 79 90 108
0.6324856877326965 1.7053531408309937 7.577732563018799 37 35 46
0.6212902665138245 -0.17570015788078308 7.362835884094238 129 109 118
0.5345631837844849 -0.10811375081539154 7.24343729019165 57 65 78
-0.03547148033976555 -0.7514069676399231 7.722028732299805 143 134 155
-0.1264639049768448 -0.04363003373146057 7.082596778869629 179 169 160
-0.6620500683784485 1.2650116682052612 6.921380043029785 53 57 56
-0.45241913199424744 1.6928218603134155 6.242861270904541 124 122 127
0.0959983617067337 0.3815770745277405 7.183468341827393 38 48 49
0.662494421005249 -0.4570460617542267 7.6833391189575195 84 73 77
-0.08215366303920746 1.2424132823944092 6.372250556945801 69 66 93
0.2782779037952423 0.44952189922332764 7.298246383666992 40 37 64
0.7921110987663269 -0.006404631771147251 7.7213521003723145 158 176 176
-0.049208130687475204 -0.15373532474040985 7.065938949584961 34 35 65
-0.16873180866241455 -0.32782235741615295 7.1440815925598145 64 88 116
0.18470238149166107 1.4175080060958862 6.635895729064941 155 161 183
0.19526639580726624 0.022442076355218887 7.067122459411621 127 156 170
-0.14697259664535522 -0.086210697889328 7.077116012573242 82 77 83
-0.1470877081155777 1.4420000314712524 6.330860614776611 36 41 44
0.27458542585372925 -0.31144875288009644 7.155148029327393 91 110 124
0.004687808919698 1.3549878597259521 6.406782150268555 126 109 101
0.11323616653680801 0.343603253364563 7.169661045074463 222 207 202
-1.0669220685958862 1.2888848781585693 6.667688846588135 52 52 60
0.0821700245141983 1.4878908395767212 6.15816068649292 53 82 78
-0.014535637572407722 0.055205076932907104 7.055784702301025 119 125 121
0.18910816311836243 0.0011105613084509969 7.063137531280518 91 76 71
0.12994244694709778 0.18272805213928223 7.099042892456055 82 78 101
0.7001364827156067 -0.8063944578170776 7.619976043701172 70 61 64
-1.5076581239700317 1.6373050212860107 6.419671058654785 218 230 230
0.4463411867618561 -0.41744422912597656 7.3386616706848145 128 151 185
0.36760175228118896 -0.14275412261486053 7.13194465637207 95 93 94
-0.2732889950275421 0.0029693313408643007 7.125856876373291 77 73 87
-0.06646712124347687 -0.44048941135406494 7.190794944763184 73 68 64
-1.230002999305725 1.650120735168457 6.3506574630737305 28 29 47
0.4683448374271393 -0.31518781185150146 7.262210369110107 168 159 154
-0.9009084105491638 1.4386706352233887 6.250666618347168 111 130 144
-1.3935409784317017 1.6582516431808472 6.415045738220215 121 129 152
0.03953623026609421 0.1354779303073883 7.07246732711792 167 157 147
0.2726971507072449 -0.030224090442061424 7.079177379608154 83 74 75
-0.25909143686294556 0.08567404747009277 7.1290483474731445 167 147 136
0.6665377020835876 0.07910899072885513 7.556145191192627 167 154 135
-0.32679814100265503 0.014480909332633018 7.130277633666992 46 37 40
-0.551934540271759 0.8481609225273132 8.081537246704102 149 151 140
-1.1379441022872925 1.362551212310791 6.558373928070068 42 51 66
0.45934784412384033 -0.34095051884651184 7.28302001953125 129 132 137
0.007052826229482889 1.6892839670181274 6.019660949707031 114 113 108
0.4425053000450134 0.176936537027359 7.213523864746094 54 47 55
-1.051302194595337 1.6291991472244263 6.328569412231445 30 32 29
-0.16873180866241455 -0.32782235741615295 7.1440815925598145 156 206 255
0.41827642917633057 0.309349000453949 7.267472743988037 141 175 187
-1.1453970670700073 1.648323893547058 6.341955184936523 110 129 127
-0.0999259352684021 -0.4639468491077423 7.229236602783203 107 138 182
0.37622055411338806 0.2711574137210846 7.242027282714844 67 52 57
-0.21628110110759735 0.20351473987102509 7.143496036529541 83 62 67
0.19440791010856628 -0.2731735408306122 7.06471061706543 44 40 37
0.36679747700691223 -0.10801031440496445 7.1283392906188965 107 107 95
-0.9947128891944885 1.5861432552337646 6.736706733703613 109 134 131
0.48504242300987244 -0.09289393573999405 7.209123134613037 136 137 157
-0.19581051170825958 1.4570542573928833 6.20871114730835 65 61 86
0.23386281728744507 -0.19861525297164917 7.166964054107666 31 37 73
0.04933878406882286 0.11434956640005112 7.072240352630615 47 49 62
-0.6003203392028809 1.4541908502578735 6.167421340942383 113 130 122
-0.1510637104511261 1.540327787399292 6.0279717445373535 213 226 216
0.49784567952156067 -0.5445311665534973 7.717166423797607 48 35 63
0.2005787342786789 -0.5055267810821533 7.269372463226318 83 121 166
0.027261419221758842 0.30739325284957886 7.14886999130249 152 156 123
0.4981789290904999 -0.15769514441490173 7.223259925842285 107 97 106
-0.35193249583244324 0.19427704811096191 7.210253715515137 94 80 97
-0.9207310676574707 1.363282322883606 6.585129261016846 86 75 83
-0.43748918175697327 -0.1249566376209259 7.227383613586426 107 124 134
-0.9378215670585632 1.278662085533142 6.685571193695068 172 195 179
0.3201145529747009 1.4506072998046875 6.620616436004639 89 79 87
0.7567856907844543 -0.746075451374054 7.61570405960083 145 153 164
-0.13618040084838867 -0.09606459736824036 7.083703517913818 209 229 228
-1.1976052522659302 1.6021270751953125 6.431149005889893 58 48 49
-0.9573315978050232 1.4604896306991577 6.236037254333496 141 165 175
-0.05420808866620064 1.1453945636749268 6.388929843902588 125 121 148
-0.49178171157836914 -0.0853164792060852 7.250482082366943 54 60 84
-0.9181145429611206 1.525051236152649 6.2648210525512695 26 27 32
0.016789160668849945 -0.06321822851896286 7.055756568908691 116 106 105
0.5837383270263672 0.26345592737197876 7.4104509353637695 119 140 167
0.007162023335695267 -0.1649317443370819 7.071417331695557 58 48 49
-2.939629554748535 1.749832034111023 5.803637981414795 51 51 87
-0.22664690017700195 0.1597292274236679 7.116205215454102 60 51 52
0.3201145529747009 1.4506072998046875 6.620616436004639 83 71 81
0.5716230273246765 -0.14375075697898865 7.272552013397217 172 163 154
0.18333594501018524 -0.06994384527206421 7.056839466094971 71 87 110
-0.02108612470328808 -0.17890210449695587 7.07203483581543 90 97 90
0.013622297905385494 -0.4411300718784332 7.189979553222656 94 111 118
-0.20779040455818176 1.633573055267334 6.0789008140563965 123 111 111
0.1378241330385208 0.32925599813461304 7.169189929962158 99 90 109
-1.0880978107452393 1.3366055488586426 6.604802131652832 97 91 95
-1.3937491178512573 1.6257461309432983 6.4367995262146 111 106 103
0.5462230443954468 -0.1692657619714737 7.281949520111084 65 67 66
0.2069965898990631 -0.3371392488479614 7.145096302032471 76 68 66
0.5960298776626587 0.12354040145874023 7.350371837615967 146 163 170
-0.047401558607816696 -0.831244707107544 7.640195846557617 117 103 103
0.20845580101013184 -0.4248725473880768 7.184564590454102 79 68 64
-0.9277220964431763 1.2436803579330444 6.70736837387085 71 57 56
0.40241315960884094 0.2812962532043457 7.226621150970459 191 203 191
0.29980817437171936 0.36543092131614685 7.218563556671143 151 149 160
-1.3669732809066772 1.4238502979278564 6.358837127685547 23 22 27
0.31491023302078247 0.339235782623291 7.248231887817383 125 106 100
-0.010425441898405552 1.2647485733032227 6.3936872482299805 62 52 63
-0.10670604556798935 0.04978145286440849 7.089248180389404 90 103 112
0.6289730072021484 -0.8075798153877258 7.648548126220703 129 111 109
-1.1139540672302246 1.1068814992904663 7.352022171020508 144 153 170
0.025071825832128525 -0.5866690278053284 7.353367328643799 20 28 31
-0.036762624979019165 0.44773295521736145 7.240418434143066 44 74 136
0.011164487339556217 -0.054021429270505905 7.068922519683838 33 41 87
0.054057590663433075 1.3227745294570923 7.2526936531066895 182 206 190
-0.45495763421058655 -0.10232289880514145 7.229299545288086 166 178 164
-0.18809174001216888 1.0649619102478027 6.377645969390869 102 109 101
-1.6734530925750732 1.6595799922943115 6.488605976104736 109 94 97
0.008631985634565353 -0.09029528498649597 7.057283401489258 122 147 141
0.38308486342430115 0.1700044423341751 7.184479236602783 112 104 102
0.09215042740106583 -0.30193662643432617 7.105166435241699 229 240 226
-0.09840685874223709 0.31503576040267944 7.161653995513916 150 146 173
0.3417556583881378 -0.49256134033203125 7.339357376098633 98 95 88
-0.2732889950275421 0.0029693313408643007 7.125856876373291 128 113 134
-0.033255141228437424 1.429504156112671 6.373043060302734 38 52 81
0.11646222323179245 -0.44711732864379883 7.193053245544434 223 239 229
-0.7904598712921143 0.9196122884750366 7.4081902503967285 102 97 91
0.13076825439929962 0.12974907457828522 7.0898261070251465 77 64 71
-0.9329476952552795 -0.21709181368350983 8.168716430664062 49 50 52
-0.036762624979019165 0.44773295521736145 7.240418434143066 82 63 65
-0.15739096701145172 1.5701463222503662 6.028205394744873 32 40 42
-1.6245659589767456 1.5647130012512207 6.473324298858643 113 138 142
-0.7882722616195679 1.279619574546814 6.752468109130859 222 232 255
-0.2327452003955841 1.5081499814987183 6.049812316894531 35 57 68
-1.6245659589767456 1.5647130012512207 6.473324298858643 196 182 169
-1.016270637512207 1.3834177255630493 6.625020503997803 84 66 66
-1.1080431938171387 1.2590875625610352 6.699909210205078 134 168 214
-0.12105102837085724 1.3285856246948242 6.317525863647461 189 200 202
0.3169824182987213 0.28163236379623413 7.237264156341553 46 74 98
-0.023729855194687843 -0.23609262704849243 7.080819129943848 61 59 64
0.4141014814376831 0.26088061928749084 7.2419867515563965 51 46 52
0.15825395286083221 1.4267613887786865 6.621546745300293 95 106 100
0.6623886227607727 -0.9086447954177856 7.666254997253418 105 85 96
-0.4106435775756836 -0.10130973160266876 7.191560745239258 172 183 177
0.12637563049793243 1.1748212575912476 7.190744400024414 45 47 44
-0.47398993372917175 -0.08518869429826736 7.24193811416626 87 76 92
-0.4775345027446747 1.5172454118728638 6.0982184410095215 70 87 141
-0.0857314020395279 0.9141343235969543 7.7878899574279785 87 70 76
0.09040706604719162 1.4646656513214111 6.296798229217529 75 91 107
0.02995109185576439 1.425648808479309 6.463070392608643 36 64 104
-0.1587321013212204 1.2918901443481445 6.306046962738037 170 182 180
-0.15493232011795044 1.6440105438232422 6.0373616218566895 78 110 135
-1.6283620595932007 1.5358575582504272 6.4733171463012695 134 120 135
0.500324547290802 -0.08434408158063889 7.209535598754883 93 68 71
0.0902194231748581 1.3398665189743042 7.063711643218994 125 118 108
-0.43981096148490906 1.4576478004455566 6.195491790771484 134 101 120
-1.0194531679153442 1.2834645509719849 6.672576904296875 135 126 155
-0.09783602505922318 0.2510957419872284 7.141197204589844 95 86 89
0.5218489170074463 0.038508132100105286 7.235899448394775 132 139 145
0.30049407482147217 0.14518317580223083 7.120474815368652 90 78 80
-0.07886781543493271 1.2778902053833008 6.357091903686523 90 106 132
0.00212289160117507 -0.0989508107304573 7.042781829833984 134 155 158
-1.4100719690322876 1.42783784866333 6.384955406188965 122 92 104
-0.35897552967071533 1.4769130945205688 6.0639142990112305 100 129 163
0.12839990854263306 0.28670161962509155 7.136746406555176 117 102 105
0.7240713238716125 -0.7734026312828064 7.639528751373291 135 131 148
0.28086742758750916 -0.33654674887657166 7.164876461029053 172 145 128
-0.29273954033851624 0.10648363828659058 7.117208957672119 40 44 91
-0.9686775207519531 0.9610612988471985 7.406325817108154 144 168 172
-0.904604434967041 1.281190037727356 6.691409111022949 173 178 184
-0.45495763421058655 -0.10232289880514145 7.229299545288086 166 178 164
-0.2421310842037201 1.3548955917358398 6.272292137145996 197 224 254
0.2231442928314209 1.2899236679077148 7.186792850494385 80 69 67
-0.12937124073505402 -0.0019058737671002746 7.071889877319336 70 76 98
-0.1616879105567932 -0.3875279426574707 7.182063579559326 67 71 74
0.2210332304239273 -0.49333399534225464 7.268551826477051 115 92 102
-0.18845513463020325 0.26284167170524597 7.165432453155518 88 76 90
-0.47044193744659424 -0.14945606887340546 7.241367816925049 41 46 49
0.3590923249721527 -0.35914143919944763 7.218947887420654 51 54 35
-0.04753762111067772 -0.4739074110984802 7.23065710067749 79 81 68
0.7299954295158386 0.5851196050643921 8.160435676574707 73 72 88
0.03134844824671745 0.9614349007606506 7.695401191711426 125 112 132
0.5923735499382019 -0.1441645324230194 7.313791751861572 150 161 181
-0.08912798017263412 1.073512077331543 6.402613639831543 105 94 88
0.06535983085632324 1.0656166076660156 7.532848834991455 95 93 94
0.19896149635314941 1.4126927852630615 6.658626079559326 44 38 48
0.30706867575645447 0.4154011309146881 7.28702974319458 73 57 58
-0.9770097136497498 1.2650808095932007 6.6796956062316895 126 123 104
0.5984671115875244 0.10607938468456268 7.334728717803955 173 147 124
-0.1315508335828781 1.6726564168930054 6.0591206550598145 130 160 158
0.20782271027565002 -0.3002167344093323 7.122361183166504 11 15 14
0.22889377176761627 0.34647101163864136 7.201430320739746 128 139 169
-1.6754342317581177 1.3864277601242065 6.547606468200684 89 115 132
-0.1466473489999771 -0.1861342191696167 7.089188575744629 93 83 91
-0.023231059312820435 -0.20923802256584167 7.075685977935791 101 122 165
-0.23739197850227356 -0.14283786714076996 7.109133243560791 85 120 126
0.7011788487434387 -0.825046956539154 7.590624809265137 80 73 91
-0.29889538884162903 0.006563653238117695 7.135427951812744 160 166 162
0.07672210782766342 0.18765154480934143 7.1061601638793945 138 153 172
0.34001606702804565 0.15205293893814087 7.161167144775391 107 132 139
-0.32385900616645813 1.5885307788848877 6.080478668212891 73 58 61
0.2816743552684784 -0.4027807116508484 7.205418109893799 212 231 225
