ply
format ascii 1.0
element vertex 701
property float x
property float y
property float z
property uchar red
property uchar green
property uchar blue
end_header
-0.1383388638496399 1.0863666534423828 6.341456413269043 110 137 144
-0.7264145612716675 1.2620983123779297 6.955653667449951 177 182 159
0.2053673267364502 -0.11006652563810349 7.064291000366211 169 185 184
-0.9703894853591919 1.1686182022094727 6.84274435043335 39 47 49
-0.7174776196479797 0.843995988368988 7.588968753814697 96 103 95
-0.9950754642486572 1.4217544794082642 6.534038066864014 131 145 156
-1.57826566696167 1.4897099733352661 6.70809268951416 38 62 100
-1.0781728029251099 -0.5370531678199768 8.115742683410645 119 107 107
-0.043025270104408264 -0.40527018904685974 7.262770175933838 219 201 199
-0.38859686255455017 -0.2619180977344513 7.192887306213379 159 156 137
-0.24522586166858673 1.157594919204712 6.547642707824707 65 72 88
-1.1069011688232422 1.5353318452835083 6.384678840637207 41 55 104
-0.3200828731060028 0.844679057598114 7.7291340827941895 39 50 42
0.18290776014328003 1.381281852722168 6.445119380950928 17 18 38
-0.8860880136489868 1.488503098487854 6.339949607849121 46 52 52
0.25417810678482056 -0.2043069750070572 7.183393955230713 67 76 83
-0.8659296631813049 1.512510061264038 6.1717400550842285 74 66 117
-0.03450639173388481 0.024968145415186882 7.1579484939575195 145 157 153
-0.01811946928501129 1.6295838356018066 6.166032314300537 124 150 175
0.4439910352230072 0.8951286673545837 7.897143840789795 69 68 73
0.017673706635832787 -0.43823671340942383 7.235180854797363 204 216 204
-0.098747618496418 0.04470739886164665 7.207155704498291 147 173 172
-0.6874849200248718 1.9116657972335815 6.165414333343506 43 52 59
0.5385924577713013 -0.7087212800979614 7.73931884765625 113 87 86
-0.24241413176059723 0.25310271978378296 7.308014392852783 147 162 159
0.003875682596117258 0.05584229156374931 7.151838302612305 130 147 137
0.404856413602829 0.1863134205341339 7.3819169998168945 128 151 165
-1.2187747955322266 1.3976315259933472 6.266395092010498 72 79 121
-1.3763813972473145 1.5714961290359497 6.410730361938477 94 83 126
0.3935580849647522 -0.7357584238052368 7.7629828453063965 192 183 174
-0.051249369978904724 1.753515362739563 6.169371128082275 89 81 118
-0.1275145262479782 0.10279834270477295 6.943798065185547 157 174 166
-0.26541009545326233 0.48065289855003357 7.1583991050720215 49 58 53
-0.17381735146045685 0.9300830364227295 6.426188945770264 184 219 225
-0.17606134712696075 -0.04827778413891792 7.0439133644104 134 148 133
0.2992139756679535 -0.4918709695339203 7.396694660186768 220 237 221
-0.7974688410758972 1.4897581338882446 6.358185768127441 150 174 178
-0.2830428183078766 -0.13556043803691864 7.315279006958008 178 163 158
-0.8112248778343201 1.4284723997116089 6.329791069030762 117 100 116
-0.15268951654434204 0.1610373854637146 7.4240498542785645 162 172 171
0.6515893340110779 -0.5817837119102478 7.835099697113037 121 117 118
-0.15059810876846313 -0.322542279958725 7.125969409942627 194 209 202
0.3520781993865967 -0.34524327516555786 7.191287517547607 211 229 217
0.018793625757098198 0.18980374932289124 7.267909526824951 127 149 147
-1.2470906972885132 1.5370218753814697 6.611185550689697 47 64 120
-0.9522879123687744 1.3436105251312256 6.748751640319824 17 20 25
-0.26005783677101135 0.23228271305561066 7.217322826385498 117 110 104
0.1341536045074463 0.20325428247451782 7.3034772872924805 119 138 144
0.6387137770652771 0.15059812366962433 7.177297115325928 66 66 76
-0.9099931120872498 1.6239886283874512 6.581779479980469 92 91 125
-0.3280427157878876 0.2345966398715973 7.439675807952881 103 115 113
-0.20818835496902466 -0.0458880178630352 7.19904899597168 176 170 158
0.7040414810180664 0.4689224064350128 7.609280109405518 72 61 77
-0.9167181849479675 1.478298306465149 6.544997692108154 43 49 49
-1.0682603120803833 1.369694471359253 6.503856658935547 39 41 40
0.09250175952911377 0.5535596609115601 7.7654709815979 25 26 30
0.06607864797115326 -0.22206616401672363 7.112844944000244 156 159 140
-0.09058050066232681 0.10454846918582916 7.230775833129883 154 174 165
-0.11696688830852509 -0.3226550221443176 6.9157023429870605 170 176 176
-1.31387460231781 1.3370599746704102 6.911944389343262 182 185 176
-0.45898526906967163 0.14474207162857056 7.284719467163086 85 101 100
-0.061622802168130875 0.7551952004432678 7.727289199829102 12 18 18
0.16316169500350952 1.5102334022521973 6.752070426940918 30 34 35
0.1481470763683319 -0.37071582674980164 7.256784915924072 199 210 194
0.27478715777397156 -0.17152568697929382 7.209798336029053 165 183 169
-1.0982789993286133 1.5005638599395752 6.8858513832092285 17 15 18
-0.9825246930122375 1.2971599102020264 6.694125175476074 52 66 79
-0.06938184052705765 -0.9062589406967163 7.908722400665283 23 25 20
-0.254907488822937 -0.31343525648117065 7.220699310302734 209 224 219
0.018860794603824615 1.4497828483581543 6.428130149841309 43 45 40
-0.38894394040107727 0.1696535348892212 7.3012895584106445 105 114 113
-0.903019905090332 1.3858203887939453 6.689031600952148 117 122 116
0.124467633664608 0.275314599275589 7.158087253570557 137 170 179
0.4150997996330261 -0.518528163433075 7.341230869293213 188 191 182
-1.0357882976531982 1.6752393245697021 6.547218322753906 132 158 185
0.10608381778001785 0.10103219747543335 7.2412285804748535 162 183 184
-1.5080591440200806 1.617477536201477 6.716563701629639 54 48 74
-0.8598453402519226 1.696746826171875 6.351397514343262 105 90 133
-0.2888968884944916 1.727034091949463 6.0278425216674805 115 135 159
-0.5982085466384888 -0.8327769637107849 8.148859977722168 92 81 87
-0.09360754489898682 -0.30274274945259094 7.298507213592529 206 193 187
-0.36855190992355347 -0.025290796533226967 7.155490875244141 160 170 169
-0.719043493270874 1.3929719924926758 6.389204978942871 46 52 52
0.4762483239173889 1.3767833709716797 8.133265495300293 135 137 113
-0.26838418841362 -0.4621114432811737 7.236516952514648 210 214 200
-0.03682401776313782 0.4195951521396637 7.285759925842285 97 107 99
0.4314466416835785 -0.42113983631134033 7.422586441040039 195 205 196
-0.5812793970108032 -0.3432644009590149 7.508087635040283 185 178 160
-0.9930320382118225 1.334999442100525 6.269290447235107 157 157 183
-0.5035297274589539 -0.2655862271785736 7.393133640289307 195 191 179
-0.0338461808860302 -0.5517083406448364 7.452630996704102 219 239 230
0.23663215339183807 -0.16507330536842346 7.305719375610352 143 154 137
0.33847635984420776 0.14651672542095184 7.14583683013916 132 160 172
0.05892445519566536 -0.39771583676338196 7.421860218048096 125 139 124
-1.315812587738037 1.8112447261810303 6.425440788269043 26 23 50
0.1750618815422058 1.4630858898162842 6.807019233703613 39 43 44
-0.27035126090049744 -0.1253240704536438 7.019412994384766 121 134 125
-0.04819068685173988 -0.214568093419075 7.053612232208252 149 163 150
-0.14991624653339386 -0.14765888452529907 7.0858259201049805 187 177 175
0.1226968765258789 -0.11515619605779648 7.177637100219727 134 145 129
-0.9369047284126282 -0.49002137780189514 8.261557579040527 97 87 95
0.4691334664821625 -0.0008837321074679494 7.206194877624512 123 126 119
-0.5744152069091797 -0.7894737720489502 8.064635276794434 99 86 95
0.08709339052438736 1.7780834436416626 6.1024017333984375 86 79 123
0.23701073229312897 0.03974844142794609 7.261376857757568 96 72 68
0.05505285784602165 0.07852223515510559 7.438990592956543 147 177 188
-0.07879884541034698 1.4119431972503662 6.009215354919434 83 72 115
0.7186082005500793 -0.2569231688976288 7.226898670196533 139 131 118
-0.5499799847602844 1.5990840196609497 6.341554164886475 97 113 146
0.3170119822025299 -0.008756970055401325 7.36610746383667 156 177 180
0.014352485537528992 0.25544875860214233 7.453009128570557 123 147 173
-0.08869621157646179 0.10997256636619568 7.24267053604126 53 58 61
0.6123320460319519 -0.8051244020462036 7.885708808898926 127 123 111
-0.447151780128479 1.5806635618209839 6.339747905731201 42 40 41
0.1980329304933548 1.1822879314422607 7.297634124755859 130 138 140
-1.062705397605896 0.9374397397041321 7.484258651733398 158 127 81
-0.20552271604537964 -0.3353051543235779 7.225828170776367 221 218 203
-0.2447853684425354 -0.0567055270075798 7.312833309173584 81 82 87
0.1926693469285965 0.03650268167257309 7.233772277832031 52 63 83
-1.1535037755966187 1.759751796722412 6.389655590057373 98 90 129
-0.05790724977850914 0.036865316331386566 7.353257656097412 184 199 194
-1.592992901802063 1.4725700616836548 6.642597198486328 158 221 255
-0.30661147832870483 -0.3355117440223694 7.442768573760986 193 180 172
-0.1640423834323883 1.7491540908813477 6.4575724601745605 61 48 58
-1.011000633239746 1.4375100135803223 6.955450534820557 49 57 59
-0.6483681201934814 1.5394110679626465 6.209122180938721 69 65 116
-0.9066562652587891 1.7951666116714478 6.248630046844482 102 94 135
-0.43359172344207764 -0.038568221032619476 7.3406476974487305 175 185 174
-1.065006971359253 1.341235876083374 7.227349758148193 137 167 203
-0.4792730510234833 -0.021982813253998756 7.211672782897949 167 169 166
0.3134518265724182 -0.47495073080062866 7.429189682006836 214 227 210
-0.4237264394760132 -0.05311015993356705 7.367103576660156 144 132 120
-1.3329448699951172 1.4741473197937012 6.540239334106445 50 57 111
-0.08521772921085358 1.257508635520935 6.405785083770752 36 40 52
0.3133487105369568 -0.664732038974762 7.463379383087158 165 177 175
-0.9346952438354492 1.260237693786621 6.8454389572143555 47 51 63
-0.8539240956306458 1.3718409538269043 7.104825973510742 167 174 158
0.10871359705924988 1.1357390880584717 6.5216779708862305 54 70 95
-0.175101175904274 0.5097747445106506 7.168295383453369 55 48 64
-0.1409834325313568 -0.01592741347849369 6.955338478088379 156 175 169
-0.4348583221435547 0.13346198201179504 7.309146404266357 105 114 113
-0.5829188823699951 1.1754281520843506 7.467673301696777 140 125 102
0.34735655784606934 0.06092148274183273 7.25560998916626 125 135 137
-1.4867708683013916 1.456950306892395 6.598227024078369 41 43 84
0.03841235116124153 0.4111308753490448 7.116619110107422 86 71 66
-0.7586839199066162 1.381369709968567 6.406544208526611 143 163 172
0.4726238548755646 0.6908041834831238 7.962555885314941 42 43 48
-0.31278613209724426 1.4078913927078247 6.105196475982666 39 45 61
-1.5932550430297852 1.7130497694015503 6.824869155883789 135 159 161
-0.5735729336738586 0.13640862703323364 7.307717323303223 84 88 89
-0.2908210754394531 -0.3510700464248657 7.275192737579346 177 193 180
0.5717980265617371 -0.6085115671157837 7.69607400894165 71 68 59
-0.15220625698566437 0.23399077355861664 7.121628284454346 140 156 143
-0.24229025840759277 -0.03423092141747475 7.120953559875488 53 58 61
-0.6198909282684326 1.4984629154205322 6.116156578063965 65 58 110
0.02287299372255802 0.454942524433136 7.2129387855529785 124 136 134
-0.8180689811706543 -0.8113937377929688 8.156420707702637 97 87 96
-1.1031620502471924 1.2716786861419678 6.700321674346924 17 20 25
-1.0458792448043823 -0.3582000136375427 8.33094310760498 99 94 101
0.2614845037460327 -0.2259126901626587 7.182657718658447 205 217 207
-0.2981279492378235 -0.2306564897298813 7.312161445617676 176 184 169
-1.247994303703308 1.272063136100769 7.14206600189209 156 179 213
-0.31529679894447327 1.446276307106018 6.308843612670898 99 116 123
0.24687767028808594 -0.2938157618045807 7.117769241333008 166 189 173
0.6380658149719238 -0.9182182550430298 7.8897528648376465 202 203 189
-0.04996241629123688 1.191978931427002 6.389079570770264 165 194 192
0.09896299988031387 0.2055206149816513 7.127821922302246 72 77 83
0.3685595989227295 0.30315864086151123 7.2476701736450195 155 179 181
-1.1867619752883911 1.3896093368530273 6.727945804595947 41 42 37
-0.4824356436729431 -0.14554332196712494 7.363259792327881 170 180 169
-0.3917773365974426 1.0937395095825195 6.553059101104736 51 63 105
-0.2944471538066864 0.3435077369213104 7.389883995056152 155 161 157
0.2617725729942322 1.6159327030181885 7.346587657928467 169 182 173
-0.03695309907197952 1.2744879722595215 6.432746410369873 179 203 205
0.7431545257568359 -0.6409507989883423 7.610931396484375 79 70 63
0.551040530204773 -0.7354143261909485 7.703842639923096 126 111 114
-0.31893429160118103 0.12726780772209167 7.338841438293457 46 53 59
-0.0954594835639 0.14214514195919037 7.41292142868042 70 59 63
-0.8729622960090637 -0.5250369310379028 8.164752960205078 107 92 99
-0.1766456514596939 0.3899041712284088 7.264116287231445 104 124 113
0.5014021396636963 0.1023062989115715 7.319918632507324 147 165 165
-0.21642686426639557 1.0307925939559937 6.596980571746826 50 63 97
0.18070077896118164 1.5755096673965454 6.827118396759033 155 158 165
-0.3195049464702606 -0.3064437210559845 7.601452350616455 124 112 112
0.08029375225305557 1.2382861375808716 7.309170722961426 145 155 157
0.4822400212287903 -0.10969758778810501 7.277908802032471 69 78 73
-0.17912307381629944 -0.4161645472049713 7.2689337730407715 197 180 164
-1.53365957736969 1.5342471599578857 6.7053327560424805 104 134 172
0.19280079007148743 -0.042873334139585495 7.142253398895264 87 93 89
-1.2093324661254883 1.2946463823318481 6.667051315307617 193 198 192
0.2823517918586731 -0.12122666090726852 7.38589334487915 153 168 173
-1.1727378368377686 0.9886389374732971 7.449195861816406 162 133 101
-0.8912380933761597 1.4399431943893433 6.928300857543945 20 30 29
0.34568077325820923 0.14541640877723694 7.454797744750977 39 56 86
-0.7722271680831909 1.5143802165985107 6.444304943084717 111 95 105
-0.936246931552887 0.08092527091503143 8.200862884521484 107 103 102
-0.7656222581863403 1.3178390264511108 6.739391803741455 144 155 139
-1.085383653640747 1.2841074466705322 6.885978698730469 169 171 168
0.11181481927633286 1.8431330919265747 6.1211957931518555 84 83 115
-0.08667203783988953 -0.10413827002048492 7.178877353668213 169 182 175
-0.17026303708553314 0.4646220803260803 7.398484706878662 40 65 70
-0.7688803672790527 1.7322196960449219 6.353350639343262 94 87 120
-0.2860853970050812 0.17931139469146729 7.322607517242432 52 66 67
0.41417479515075684 0.43085184693336487 7.33313512802124 31 52 83
0.04264121875166893 -0.3081534206867218 7.136072158813477 219 236 228
0.2899474799633026 0.47914794087409973 7.259603500366211 82 102 109
0.22114506363868713 1.6557819843292236 6.686993598937988 163 173 165
-0.46433380246162415 -0.5400688052177429 7.402169227600098 197 176 171
0.05862599238753319 1.3050659894943237 6.508210182189941 166 190 200
-0.15202473104000092 -0.2593037784099579 7.207616806030273 204 210 198
-0.12184390425682068 1.017972707748413 6.581031799316406 66 102 124
-0.9799576997756958 1.5492826700210571 6.2722601890563965 74 63 105
0.3020887076854706 1.0544133186340332 8.230069160461426 82 81 77
-0.07292809337377548 1.510923147201538 6.234068393707275 132 119 126
-0.7948022484779358 0.958819568157196 7.751221656799316 83 89 79
-0.5761927962303162 1.5085606575012207 6.1341872215271 102 127 131
0.45306554436683655 0.39898258447647095 7.421295642852783 48 65 75
-0.306789368391037 -0.06540598720312119 7.152228832244873 108 128 126
-0.32761451601982117 -0.17849718034267426 7.044834613800049 149 140 131
0.1943138688802719 0.636086642742157 7.328329563140869 41 54 71
-0.14363305270671844 0.15879687666893005 7.154335021972656 141 161 162
-0.2216445505619049 1.1074315309524536 6.461909294128418 112 136 170
-0.07233520597219467 -0.1330946534872055 6.804254055023193 165 167 153
-0.19333072006702423 -0.21164663136005402 7.237745761871338 188 189 173
0.4296509623527527 0.008606014773249626 7.4509782791137695 46 54 77
-0.8190440535545349 1.567609429359436 6.442404747009277 150 169 184
-0.3541485071182251 0.06565965712070465 7.134316444396973 165 175 176
0.5055782198905945 -0.27057376503944397 7.249166011810303 183 185 171
0.6351426839828491 -0.02276286482810974 7.366593837738037 58 63 66
-0.9767594337463379 0.7792553305625916 7.618473529815674 151 132 100
-0.38474589586257935 -0.35644927620887756 7.226683616638184 89 82 90
-0.14017271995544434 1.060093879699707 6.610657215118408 27 45 91
-0.06111316382884979 -0.1733252853155136 7.20680570602417 166 176 175
-0.1955360770225525 1.2720354795455933 6.5127105712890625 17 28 46
-0.3423023223876953 1.1616162061691284 7.384943008422852 70 91 96
0.24952740967273712 -0.4958936274051666 7.427871227264404 226 243 235
-0.587066113948822 1.5582371950149536 6.235289096832275 86 104 126
-0.7880609631538391 -0.829326331615448 8.176249504089355 104 95 90
0.006510375998914242 1.039737343788147 7.781243801116943 45 56 48
-0.9002692103385925 0.5602673292160034 8.25117015838623 105 88 98
-0.7496947050094604 1.6162673234939575 6.463320255279541 119 98 103
-0.9885485172271729 0.819409966468811 7.286850929260254 153 131 94
0.4307016432285309 0.3683600425720215 7.484281539916992 47 59 81
0.28430432081222534 -0.082125723361969 7.221928119659424 157 182 176
-0.0020476991776376963 -0.22649423778057098 7.22792387008667 98 98 90
-0.01298756618052721 1.5932704210281372 6.480361461639404 8 7 12
-0.26012444496154785 1.2171658277511597 6.44852352142334 55 79 123
0.142164945602417 1.7369400262832642 6.110467433929443 112 143 164
0.47268760204315186 1.3598136901855469 7.91954231262207 166 162 135
0.5548510551452637 0.353730171918869 7.3532867431640625 38 47 76
-0.044215328991413116 -0.44290193915367126 7.291937351226807 208 201 191
0.017826667055487633 0.16511742770671844 7.125609874725342 108 126 110
0.011138204485177994 -0.40877315402030945 7.1914777755737305 67 75 77
-0.4644654393196106 -0.1229819804430008 7.263275146484375 143 156 147
0.5853917002677917 -0.8322486877441406 7.6398468017578125 81 71 79
-0.9605222940444946 -0.5855482220649719 8.13188648223877 84 74 75
-0.16436848044395447 -0.2113930732011795 7.191392421722412 98 98 90
-1.6269395351409912 1.7091230154037476 6.5025129318237305 148 158 150
-0.35397326946258545 -0.13860207796096802 7.279950141906738 173 151 137
-1.0517070293426514 1.4283236265182495 6.37693977355957 67 65 89
-0.35912594199180603 1.5223815441131592 6.149390697479248 86 78 101
0.5100565552711487 -0.14864392578601837 7.246747016906738 72 86 87
-0.2655355632305145 -0.2754096984863281 7.361807823181152 176 184 169
-0.3928142488002777 1.2929002046585083 6.17837381362915 87 85 98
-0.014966907911002636 -0.5868884325027466 7.246049404144287 110 105 111
-0.243788480758667 0.31748777627944946 7.457062244415283 98 110 98
-0.5293626189231873 0.09898363798856735 7.503158092498779 91 106 113
-0.8572105765342712 1.4116209745407104 6.65605354309082 182 183 175
-1.3783262968063354 1.4448373317718506 6.451608180999756 95 102 121
0.28807127475738525 -0.21306361258029938 7.230281829833984 171 177 167
-0.48592454195022583 -0.1793515533208847 7.190762042999268 177 189 185
-1.1431550979614258 1.2390698194503784 6.807737350463867 49 57 59
-0.8204123377799988 1.3234436511993408 6.962718963623047 177 182 159
-0.3154365122318268 1.3698794841766357 6.397167205810547 13 19 33
-0.2536775767803192 0.27041247487068176 7.434864521026611 149 164 159
-0.4243876039981842 1.512007236480713 6.1400299072265625 102 87 110
-1.2078852653503418 1.460530400276184 6.534043312072754 63 75 99
0.002123893005773425 -0.5178015232086182 7.231530666351318 225 242 234
-0.7670259475708008 1.3027890920639038 6.200098991394043 119 105 128
-1.1437815427780151 1.4198756217956543 6.812809944152832 61 58 79
-0.24899014830589294 1.4741406440734863 6.046872138977051 99 85 120
0.8327056169509888 -0.5887439250946045 7.741426944732666 137 142 112
-0.930769681930542 -0.7524809241294861 8.325215339660645 107 97 105
0.16549119353294373 1.4578927755355835 6.85386848449707 197 213 210
0.10291191190481186 1.455651044845581 6.54938268661499 8 7 12
0.0197813231498003 1.6099058389663696 6.054441928863525 87 69 121
-0.6238161325454712 1.24909508228302 7.142384052276611 16 21 25
-1.0842698812484741 1.1480731964111328 7.272429466247559 227 240 231
-0.8883081078529358 0.8653726577758789 8.22653579711914 70 59 73
-1.2363300323486328 1.6663364171981812 6.364943027496338 122 108 131
-0.17184805870056152 -0.4750119745731354 7.382554054260254 209 229 220
0.413254052400589 -0.022840358316898346 7.1839213371276855 81 95 108
0.16180220246315002 -0.0421084426343441 7.238377094268799 108 108 98
-0.5910244584083557 1.4065062999725342 6.258422374725342 156 163 171
0.10718374699354172 0.4886838495731354 7.302917003631592 88 89 83
0.27252325415611267 0.8074511885643005 7.508645534515381 78 88 89
0.02745334804058075 -0.26617613434791565 7.302396774291992 62 62 52
-0.23560163378715515 0.5501680970191956 7.520856857299805 113 113 103
-0.3168083131313324 0.4156898558139801 7.582405090332031 125 136 119
-1.0508463382720947 1.2427139282226562 6.800393581390381 41 55 58
-0.563300609588623 0.07183292508125305 7.3603835105896 152 164 160
-0.7968085408210754 1.181975245475769 7.0289530754089355 174 178 155
0.2415054589509964 -0.0380714051425457 7.217893123626709 127 145 149
-0.08893857151269913 1.6778725385665894 6.237361431121826 110 144 172
-0.8772540092468262 1.491994857788086 6.71021842956543 29 31 28
-1.8427903652191162 1.6003416776657104 6.519320487976074 55 58 93
0.31880462169647217 0.0257160272449255 7.093433856964111 152 165 155
0.6019749045372009 0.44037696719169617 7.1895270347595215 94 115 146
-1.0951186418533325 1.4031503200531006 6.301533222198486 82 77 135
-0.3508947789669037 0.15117307007312775 7.168846130371094 103 120 112
0.6417397260665894 0.748091995716095 7.997910022735596 88 68 79
-0.06543166190385818 1.3955109119415283 6.3620381355285645 16 21 40
-0.9853036999702454 1.105517864227295 6.85738468170166 41 49 52
-0.14817498624324799 0.7254443764686584 7.861232757568359 74 76 71
0.21107590198516846 -0.19164107739925385 6.999899387359619 175 189 172
0.5705862641334534 0.4294903576374054 7.5631842613220215 43 57 83
0.32381466031074524 -0.4996987581253052 7.30366325378418 236 244 233
-0.6027517318725586 1.640021800994873 6.186276435852051 70 64 112
-0.7150329947471619 1.0892338752746582 6.923132419586182 167 171 156
-0.7084885239601135 1.3040128946304321 6.801645755767822 120 123 114
0.5970386862754822 -0.7276034355163574 7.709299087524414 125 111 110
-1.2958673238754272 1.1509138345718384 6.754873275756836 173 186 177
-0.21795812249183655 1.2473195791244507 6.627032279968262 164 191 198
0.5942062735557556 -0.2093094438314438 7.436476230621338 148 142 118
-1.0060940980911255 0.891395092010498 7.487417221069336 63 70 62
-0.37073004245758057 -0.02788485586643219 7.154155254364014 165 154 148
-0.07757334411144257 0.43203267455101013 7.337907314300537 112 122 111
-0.30572953820228577 -0.5210145115852356 7.391551971435547 138 149 135
-1.4003854990005493 1.2891250848770142 6.6516032218933105 72 76 77
-1.1377938985824585 0.956289529800415 7.594211578369141 206 187 154
-0.10107315331697464 1.402960181236267 6.573387622833252 34 34 42
-0.45069536566734314 0.0051466007716953754 7.367691993713379 130 128 116
0.564476490020752 -0.1876533031463623 7.386479377746582 134 149 152
-0.7398697733879089 1.0946745872497559 6.8824262619018555 175 186 172
0.07252735644578934 -0.2971958816051483 7.194630146026611 188 191 184
0.537334680557251 0.45947977900505066 7.245119571685791 85 115 141
0.566521942615509 -0.8670533895492554 7.860787391662598 113 87 86
-0.2695062756538391 0.41502293944358826 7.238797664642334 74 89 82
0.7396759986877441 -0.24915678799152374 7.816778182983398 84 74 73
-0.64473557472229 1.5131981372833252 6.186217784881592 141 140 180
0.1951996088027954 0.2415473610162735 7.221292495727539 55 75 74
0.21652671694755554 -0.26022520661354065 7.261775970458984 184 205 198
-0.1573384702205658 1.53218412399292 6.072618007659912 51 51 59
-0.1441861093044281 -0.5961728096008301 7.316596508026123 218 235 225
-0.6129307150840759 1.5277268886566162 6.095704078674316 71 69 108
0.3627752661705017 1.0834550857543945 7.941470623016357 73 68 74
0.5081291794776917 -0.13132476806640625 7.302995681762695 129 137 124
0.5913633108139038 0.20020398497581482 7.305233001708984 124 144 171
-0.680941641330719 1.7704161405563354 6.323009967803955 56 50 110
0.40198472142219543 -0.11507044732570648 7.352357864379883 153 172 168
-0.32302573323249817 1.0521072149276733 6.591846942901611 36 44 65
-0.4056936800479889 1.4767740964889526 6.247376441955566 127 123 146
-1.2518800497055054 1.5792877674102783 6.5665693283081055 159 154 176
0.12096754461526871 -0.44797083735466003 7.414068698883057 221 225 210
-0.6481208801269531 0.7626572251319885 8.352017402648926 71 66 88
0.24445345997810364 -0.6695578694343567 7.330072402954102 193 216 210
0.6619104743003845 -0.873071551322937 7.711746692657471 118 123 119
0.44196707010269165 -0.09796715527772903 7.457261562347412 58 63 66
0.4030956029891968 0.16656167805194855 7.242871284484863 116 147 152
0.062204793095588684 1.6486912965774536 6.53782320022583 106 110 119
0.047654662281274796 -0.28994086384773254 7.062826156616211 122 108 95
0.06774095445871353 0.6229913830757141 7.712729454040527 47 51 62
-0.7831181883811951 -0.11787521839141846 7.525937080383301 83 81 95
-1.666010856628418 1.4922739267349243 6.702648162841797 106 131 161
-0.5485735535621643 -0.17542913556098938 7.275757789611816 163 177 162
-1.4248238801956177 1.7087230682373047 6.5640549659729 70 96 121
-0.6436761617660522 -0.6182689070701599 8.13171672821045 77 72 78
0.09509046375751495 0.30083930492401123 7.136747360229492 43 57 70
-0.49816766381263733 0.09067535400390625 7.2961745262146 109 97 83
-0.16998901963233948 0.417102187871933 7.400736331939697 55 64 73
0.14820446074008942 -0.3030059039592743 7.326214790344238 176 193 175
0.010925005190074444 1.0488120317459106 6.369976043701172 157 182 187
-1.0290329456329346 1.3820890188217163 6.613964080810547 166 166 176
-0.5807838439941406 1.395988941192627 6.64244270324707 123 143 144
0.23811990022659302 1.449972152709961 6.568135738372803 73 74 78
-0.3670671880245209 1.7852404117584229 6.26447057723999 101 125 161
-0.6311483979225159 -0.8278229236602783 8.189608573913574 70 76 76
-1.9619061946868896 1.810164213180542 5.615070819854736 195 226 254
-0.16519300639629364 1.6335456371307373 6.316006660461426 113 148 178
-0.47914278507232666 1.002685785293579 7.536771774291992 153 164 160
-0.9413484930992126 1.3704352378845215 6.827808380126953 23 23 21
-1.0809649229049683 1.5506068468093872 6.5369062423706055 167 164 183
-0.7314952611923218 1.3100650310516357 7.207624912261963 160 166 154
0.2800295054912567 0.3387773633003235 7.183042526245117 127 149 147
-0.48727142810821533 1.4687702655792236 6.08625602722168 53 51 91
0.21533401310443878 1.4938228130340576 6.297414779663086 52 52 54
0.3212898373603821 1.1929736137390137 7.890422821044922 59 49 57
0.4107688069343567 0.0040987757965922356 7.295948505401611 151 171 172
0.11245741695165634 -0.06899394094944 7.314030170440674 168 180 156
-0.057154394686222076 0.23036254942417145 7.415149688720703 51 42 45
-1.0931414365768433 1.3387091159820557 7.153930187225342 233 245 243
0.007653806358575821 0.0371667742729187 7.164910316467285 124 144 135
-0.623073399066925 0.0712132602930069 7.272017002105713 78 84 80
-0.8174097537994385 0.41760438680648804 8.15577507019043 80 78 83
-0.1637815535068512 -0.18923115730285645 7.277312755584717 86 97 99
-0.1891057789325714 -0.2880534529685974 7.0375542640686035 161 174 167
0.2793531119823456 1.5323814153671265 6.57015323638916 153 127 140
-0.2236318588256836 0.37036189436912537 7.498480319976807 97 103 91
0.18542300164699554 1.7058285474777222 6.1998372077941895 115 135 159
-1.0146009922027588 1.7183400392532349 6.3621649742126465 91 88 135
-0.30207371711730957 -0.22985008358955383 7.23444938659668 174 164 165
0.37864094972610474 -0.8290235996246338 7.935953140258789 75 66 67
-0.1541408896446228 -0.2575181722640991 7.273143768310547 191 191 181
-1.4445223808288574 1.3626023530960083 6.5543694496154785 95 102 121
-0.06879427284002304 0.1703631430864334 7.218646049499512 103 120 112
0.1720125526189804 -0.6004937291145325 7.407338619232178 153 172 170
0.2001417577266693 0.3816970884799957 7.391451835632324 114 141 150
-0.26079297065734863 -0.3825139105319977 7.376656532287598 211 185 170
-0.4887581169605255 1.412125825881958 6.163072109222412 133 128 168
-0.10134231299161911 0.2446908801794052 7.12675666809082 118 128 130
0.2218097597360611 -0.5450814366340637 7.395230770111084 165 177 175
-0.3427354097366333 0.14655320346355438 7.252862453460693 74 77 66
-0.048357974737882614 -0.36364758014678955 7.39892053604126 230 247 237
0.5703526139259338 0.033193059265613556 7.7200236320495605 93 80 87
0.04472272843122482 -0.7252828478813171 7.453223705291748 223 235 221
-1.2443619966506958 1.3898869752883911 6.745563507080078 65 54 62
0.3403065800666809 1.2517757415771484 8.038775444030762 73 60 69
-0.25608986616134644 1.306717038154602 6.376280784606934 22 27 56
-0.041548751294612885 1.6728674173355103 6.216848850250244 109 151 176
-0.6172869801521301 1.4867124557495117 6.697882652282715 102 96 122
0.21587713062763214 -0.2731795907020569 7.1043381690979 171 179 166
-0.10113386064767838 0.3302100598812103 7.202194690704346 145 168 162
-0.09728825837373734 0.08183225989341736 7.341747283935547 132 149 133
-0.21379706263542175 -0.918014407157898 8.10527515411377 104 98 100
-0.8895561695098877 1.9264572858810425 6.313133239746094 117 124 153
0.6773943901062012 0.45215386152267456 7.714913845062256 44 32 52
-0.7174660563468933 -0.6355441212654114 8.213526725769043 121 110 116
0.06930112838745117 0.025026584044098854 7.237177848815918 125 142 134
0.948841392993927 -0.49156320095062256 7.7217230796813965 118 101 111
-0.19307807087898254 0.9603069424629211 6.409614562988281 135 160 182
-0.7839909195899963 0.9889827966690063 7.527634143829346 76 78 73
0.547671377658844 -0.6608066558837891 7.737681865692139 121 105 105
-1.2749735116958618 1.2104429006576538 7.290326118469238 137 167 203
-0.250122994184494 1.283976674079895 6.330154895782471 107 137 187
0.39520102739334106 1.6169971227645874 6.676440715789795 142 156 159
-0.3856252133846283 -0.24680867791175842 7.213983535766602 180 168 156
-0.46147647500038147 -0.001756559475325048 7.606991291046143 83 81 95
0.733677864074707 -0.6723137497901917 7.785317897796631 114 109 113
-0.3681596517562866 -0.3813785910606384 7.384679317474365 173 156 140
0.4477705657482147 1.5372346639633179 6.69120454788208 63 66 75
-0.08596960455179214 0.324442058801651 7.297661304473877 48 48 38
-1.1296534538269043 1.3251053094863892 6.747281551361084 93 98 94
-0.615230143070221 1.559982419013977 6.3406758308410645 132 122 156
-0.17931148409843445 -0.5917359590530396 7.397496700286865 126 146 145
-0.6689983606338501 0.3963995575904846 8.12120246887207 99 88 102
0.15020689368247986 -0.7764180898666382 7.874741554260254 125 106 108
0.12510842084884644 1.5431052446365356 6.0397210121154785 93 108 131
0.490267813205719 -0.3713254928588867 7.390665054321289 192 208 198
-0.4162493348121643 -0.06994185596704483 7.209651947021484 173 166 158
-0.12177655100822449 0.3713071346282959 7.212149143218994 92 76 76
0.4793218970298767 0.552757978439331 7.3708930015563965 28 39 59
-0.6389315128326416 1.6161950826644897 6.2034406661987305 86 104 126
-0.001741712330840528 0.9154885411262512 7.803362846374512 58 66 68
-1.7915682792663574 1.3977195024490356 6.784050941467285 131 162 182
0.06316149979829788 -0.13589343428611755 7.139126300811768 144 137 118
-1.1590417623519897 1.341647982597351 6.749610900878906 161 178 188
0.21172170341014862 0.726401150226593 7.365085601806641 35 35 37
0.5120738744735718 -0.11721490323543549 7.390142917633057 141 155 140
0.07270608842372894 0.10242411494255066 7.258727550506592 107 128 113
0.2879676818847656 0.043470434844493866 7.1932525634765625 179 197 185
-1.1936873197555542 1.2921749353408813 6.7684326171875 95 97 92
-1.1439568996429443 1.5853055715560913 6.596030235290527 91 86 108
-0.3142150044441223 -0.6137136816978455 7.479647159576416 129 129 127
-0.8653198480606079 -0.7597585916519165 8.135451316833496 108 102 102
-0.536650538444519 1.424010157585144 6.364638805389404 45 38 45
0.17310984432697296 0.1105521023273468 7.112454414367676 127 140 131
0.2357083261013031 1.5357229709625244 6.561638832092285 45 37 58
-0.5172388553619385 0.1604553759098053 7.4428486824035645 93 106 112
-0.8573101162910461 1.249351978302002 6.910460472106934 29 31 28
0.06531661748886108 1.4228322505950928 6.685154438018799 91 78 95
-0.7645668387413025 1.2770358324050903 6.433011531829834 65 64 72
-0.4837380349636078 -0.8055438995361328 8.086053848266602 87 77 78
0.43929022550582886 -0.18660521507263184 7.231238842010498 165 177 153
-1.048052430152893 0.9897637367248535 6.758605003356934 182 189 182
-0.1522398293018341 1.5040065050125122 6.47570276260376 79 71 86
-0.3177780210971832 1.5447527170181274 6.321224689483643 109 102 118
0.39749521017074585 -0.5427333116531372 7.346559047698975 192 208 198
-0.8837602734565735 1.3967626094818115 6.461847305297852 78 81 136
-0.09529729187488556 0.23021003603935242 7.394932270050049 68 92 94
-0.8313731551170349 1.5686599016189575 6.324612140655518 74 86 86
0.8294821977615356 0.472736656665802 7.887319564819336 55 45 54
-0.3805619180202484 1.496838092803955 6.438774108886719 36 36 34
-1.1359772682189941 1.4353591203689575 6.872854232788086 41 55 58
0.19671477377414703 -0.666175901889801 7.322632312774658 226 239 229
-0.8351439237594604 -0.37902453541755676 8.148996353149414 118 106 118
0.26548898220062256 1.699759602546692 6.756406307220459 146 152 166
-0.6377381086349487 1.6502763032913208 6.218571662902832 40 53 97
-0.3769027590751648 -0.7661301493644714 8.001343727111816 119 104 107
-0.1317576766014099 0.2601640820503235 7.246660232543945 121 141 140
-0.48357465863227844 -0.13599403202533722 7.192849636077881 194 181 165
-0.5902745723724365 1.1360267400741577 6.910613536834717 167 171 156
0.08750952035188675 -0.047360438853502274 7.203665256500244 128 149 144
0.13693150877952576 0.31361159682273865 7.18740701675415 111 137 134
-0.3173726797103882 1.0385410785675049 7.514156341552734 84 99 96
-0.68638676404953 1.4317203760147095 6.379014492034912 189 182 189
0.41826820373535156 1.2836153507232666 8.063227653503418 60 56 73
-0.08926115930080414 -0.1198224127292633 7.173091888427734 112 117 97
0.27218982577323914 -0.28404951095581055 7.320769309997559 153 172 170
0.14859886467456818 -0.24417181313037872 7.300192356109619 207 218 210
-0.3359043300151825 0.313119113445282 7.291903018951416 118 139 140
-0.34903720021247864 -0.1983151137828827 7.4008708000183105 177 147 139
-0.1662004142999649 0.575342059135437 7.512514591217041 66 83 77
-0.17814968526363373 0.9267287254333496 7.753111839294434 24 35 29
-0.1554824262857437 1.5478330850601196 6.056502342224121 118 151 186
-0.4239133298397064 0.08301336318254471 7.438023567199707 63 55 78
0.6399669051170349 0.036621615290641785 7.326954364776611 122 132 144
0.39780524373054504 -0.3763163983821869 7.424680233001709 218 235 219
-0.16024495661258698 1.6378443241119385 6.089221477508545 123 124 142
-0.18567728996276855 0.7185020446777344 7.910080432891846 60 62 59
0.584399402141571 1.3071049451828003 7.794549465179443 89 78 86
-0.9255590438842773 0.7415794730186462 7.68281364440918 82 87 80
0.08624090254306793 -0.5620641112327576 7.401813507080078 231 245 228
-1.5546993017196655 1.6917555332183838 6.618746280670166 67 77 69
-1.5825409889221191 1.3710325956344604 6.545086860656738 19 34 73
-0.572638750076294 1.7687634229660034 6.262992858886719 42 63 90
-1.1767103672027588 1.3931390047073364 6.751380920410156 150 156 156
-0.11780613660812378 1.1177335977554321 6.518438339233398 207 236 254
-0.04636101424694061 0.3169540464878082 7.24509334564209 68 92 94
0.059060238301754 0.1783822625875473 7.198297023773193 117 145 149
-0.706184446811676 1.5503658056259155 6.266017436981201 143 136 154
-1.507171869277954 1.4321221113204956 6.597806930541992 80 105 127
-0.2987177073955536 1.5269471406936646 6.365378379821777 24 28 55
-0.7198136448860168 0.9028223156929016 7.563541889190674 153 152 132
-0.8092507123947144 1.7967212200164795 6.423056125640869 91 86 116
0.24962300062179565 -0.8276838064193726 7.7719340324401855 88 78 89
-0.006469025742262602 -0.5047968029975891 7.234477519989014 227 243 233
-0.17284554243087769 0.47971582412719727 7.513951301574707 50 61 55
-0.06335622817277908 -0.2296523153781891 7.1173553466796875 191 191 181
0.5008223056793213 -0.10265049338340759 7.430282115936279 118 123 119
0.06071148440241814 -0.7611777186393738 7.343167304992676 161 179 179
-0.0032968695741146803 0.20358438789844513 7.03425407409668 153 171 171
0.06445910781621933 -0.49777624011039734 7.489875793457031 154 165 151
0.4471149444580078 0.0619305819272995 7.361502170562744 121 153 176
-0.348154753446579 -0.34216296672821045 7.356263637542725 210 200 190
0.27831196784973145 -0.49245384335517883 7.31923246383667 203 220 202
-0.23808316886425018 1.687748908996582 6.131276607513428 78 81 116
-0.6591876745223999 1.2776490449905396 6.452597141265869 152 167 188
-0.7634258270263672 -0.7569403648376465 8.285956382751465 91 82 85
-1.8313322067260742 1.556157112121582 6.52541971206665 131 162 182
-0.4881957471370697 0.03141963481903076 7.211941719055176 117 113 110
0.17121629416942596 1.2504819631576538 6.619544506072998 148 155 148
-0.3394162654876709 -0.6869224309921265 8.046622276306152 81 82 87
0.7113656401634216 1.3943455219268799 7.820710182189941 168 159 130
-0.6903766989707947 1.396121859550476 6.560543537139893 51 52 56
0.49502527713775635 -0.7332940697669983 7.839745998382568 113 87 86
-0.40358760952949524 0.801472544670105 8.048896789550781 83 71 73
-0.9340627193450928 1.3314988613128662 7.1407928466796875 230 242 238
-0.23175589740276337 1.7217061519622803 6.089083671569824 110 128 148
-0.3030024766921997 1.4625513553619385 6.333602428436279 111 100 108
-0.13801008462905884 -0.26460668444633484 7.358770370483398 202 213 205
0.21674534678459167 1.4301968812942505 7.427108287811279 187 204 194
0.3430587351322174 -0.5159571766853333 7.327375888824463 207 221 206
-0.7643585205078125 1.3164639472961426 6.6006364822387695 51 52 56
0.05835045129060745 -0.9661564826965332 7.819442272186279 120 104 107
0.4441472291946411 1.7173662185668945 6.286261081695557 191 195 204
-0.4099871814250946 1.35723078250885 6.364947319030762 25 28 47
-0.18638621270656586 0.7583506107330322 7.947125434875488 93 74 80
-1.6543207168579102 1.3673895597457886 6.766143798828125 142 144 143
0.08620205521583557 -0.5947795510292053 7.62849235534668 176 176 168
-0.22394634783267975 0.08785340189933777 7.431243419647217 135 150 155
-0.8616747260093689 -0.5378484725952148 8.34831428527832 120 110 109
-1.2426143884658813 1.829766035079956 6.6478753089904785 98 94 111
0.5017357468605042 -0.5913815498352051 8.159378051757812 118 112 114
-0.7655284404754639 1.2787131071090698 6.993512153625488 37 38 59
-0.7228277921676636 -0.6645959615707397 8.134125709533691 75 70 74
-0.7378095388412476 1.1260640621185303 7.030252456665039 72 90 102
-0.21309491991996765 -0.10250915586948395 7.128134727478027 87 88 90
0.16806353628635406 1.3389556407928467 6.446281909942627 58 63 92
0.31006091833114624 0.4307290315628052 7.427061557769775 31 37 49
-0.3350412845611572 0.4634755849838257 7.427029609680176 82 100 104
-1.0505911111831665 1.4202276468276978 6.564962863922119 159 171 185
0.23047277331352234 1.207404375076294 7.8398823738098145 65 64 69
0.7667731046676636 -0.03819206357002258 7.826231002807617 105 90 93
0.4526419937610626 1.441312551498413 7.828705310821533 63 45 45
0.07932719588279724 1.0334962606430054 6.397537708282471 110 148 195
0.14480741322040558 -0.7791522741317749 7.791104793548584 91 82 77
-0.6166441440582275 1.4464069604873657 6.718383312225342 141 128 146
-0.574049174785614 0.5141686797142029 8.192399978637695 99 88 102
0.4373602569103241 -0.5854783654212952 7.445756912231445 216 227 210
0.564149022102356 -0.5084472298622131 7.82932710647583 111 94 102
-0.0693243145942688 0.23022621870040894 7.202357292175293 48 48 38
0.669481635093689 -0.14255446195602417 7.142162322998047 183 199 186
-0.49422407150268555 0.1447964906692505 7.215343475341797 147 165 177
0.3861241638660431 0.050574108958244324 7.05043888092041 135 156 147
-0.34341657161712646 1.4769641160964966 6.306984901428223 47 46 42
-0.09202338010072708 1.266952633857727 6.714455604553223 22 43 90
0.2660086452960968 -0.0026192408986389637 7.034102439880371 153 168 161
-0.8304229974746704 1.5462721586227417 6.359390735626221 136 170 197
0.650602400302887 -0.21974845230579376 7.507544994354248 58 63 66
-0.802932858467102 -0.4828800559043884 8.025043487548828 93 91 92
-0.140610009431839 1.402141809463501 6.511714935302734 62 87 127
-0.4699881672859192 -0.4875659644603729 7.2403950691223145 210 200 190
-0.9016380906105042 0.8907758593559265 7.315454006195068 154 151 136
-0.1765514612197876 1.7047380208969116 6.156274795532227 103 129 144
-1.3199371099472046 1.3410205841064453 6.636929988861084 110 120 132
0.24573713541030884 0.3475649356842041 7.167577266693115 106 120 120
-0.661116361618042 1.7815771102905273 6.356852054595947 84 85 116
0.6470572352409363 -0.699079692363739 7.8801798820495605 108 94 93
0.533666729927063 0.3806855082511902 7.644625186920166 21 27 43
0.2815306484699249 -0.03592412918806076 7.191985607147217 146 162 161
0.14482887089252472 -0.17380192875862122 7.42696475982666 71 82 86
-0.2696045935153961 0.14324922859668732 7.148806571960449 111 129 129
-1.0239888429641724 1.2971924543380737 6.898244857788086 74 98 98
0.39022740721702576 0.2445622831583023 7.264948844909668 132 151 155
0.5692462921142578 1.3516250848770142 7.961677551269531 53 44 47
-0.10500279814004898 -0.5178696513175964 7.506922245025635 151 163 163
-0.7293710708618164 -0.7563071846961975 8.189440727233887 77 72 78
0.593927264213562 -0.1156860888004303 7.495221138000488 132 125 106
-1.0217093229293823 1.37807297706604 6.860046863555908 140 140 138
0.8539736270904541 -0.7473454475402832 7.949394702911377 109 97 99
-0.7056961059570312 1.4343535900115967 6.372211456298828 43 49 49
0.6865926384925842 -0.9051814079284668 7.757444858551025 123 126 105
-0.4172861874103546 -0.7847542762756348 7.89359188079834 111 99 103
0.021463844925165176 0.3501500189304352 7.426524639129639 73 63 62
-0.177262544631958 1.1317516565322876 6.643721103668213 91 122 168
-0.6290439367294312 -0.6214104890823364 8.282432556152344 93 91 92
-0.5445017218589783 0.16412396728992462 7.470621109008789 148 166 180
-0.04277798905968666 -0.7548168897628784 7.401391983032227 161 179 179
-0.45682790875434875 1.463523268699646 6.273340225219727 70 99 139
-0.23568035662174225 1.1526758670806885 6.3332343101501465 101 138 182
0.1571086049079895 0.2328978329896927 7.194493770599365 118 130 130
-0.19729740917682648 0.9871932864189148 7.253190040588379 150 154 127
-0.6664611101150513 1.8065325021743774 6.2671051025390625 54 51 96
-0.3908192813396454 0.6070473790168762 7.5661420822143555 67 82 89
-0.5196408033370972 1.5414069890975952 6.3842973709106445 58 63 103
0.24362772703170776 0.4282972812652588 7.2792768478393555 82 103 124
-0.5756916999816895 1.518440842628479 6.426705837249756 94 93 111
-0.8452484607696533 0.9057433605194092 7.597661018371582 54 49 56
-0.48434898257255554 1.5513240098953247 6.196025848388672 44 72 93
-0.5022551417350769 0.07974392920732498 7.589231967926025 135 125 126
-0.31176894903182983 1.265962839126587 6.127708911895752 41 76 106
-0.1623540073633194 0.431868314743042 7.200870990753174 70 69 67
-0.13884983956813812 0.16889867186546326 7.208664894104004 138 144 140
-0.5051512122154236 -0.6845813393592834 8.043718338012695 72 69 78
0.40145206451416016 1.422371745109558 6.872437000274658 137 140 149
0.32817336916923523 0.9917054772377014 7.79768180847168 74 64 73
-0.19591574370861053 0.48503610491752625 7.571206092834473 96 99 92
0.733694314956665 -0.7799456119537354 7.58586311340332 94 85 90
-0.17824555933475494 0.3666883409023285 7.421184539794922 109 114 107
0.9026200771331787 -0.49865415692329407 7.864394187927246 85 80 76
-1.0162301063537598 1.2132145166397095 6.831020355224609 134 139 135
-0.2695254385471344 -0.16478514671325684 7.033264636993408 119 135 132
-0.6487534046173096 1.3427149057388306 6.836819171905518 123 126 145
-0.7819125056266785 1.7251741886138916 6.269313335418701 78 70 117
0.0004575714410748333 -0.7968870401382446 7.7760090827941895 107 95 97
-0.6100975871086121 1.795673131942749 6.260404109954834 96 111 116
-0.04922192916274071 -0.2631751000881195 7.119076728820801 191 202 186
-0.1663161665201187 -0.85807204246521 7.85289192199707 108 109 113
-1.5809931755065918 1.3700027465820312 6.466929912567139 162 189 218
-0.5342667698860168 0.10182676464319229 7.242934703826904 130 121 122
-0.28062140941619873 1.0480008125305176 6.425808906555176 152 182 216
0.5749582648277283 0.11931227892637253 7.438409805297852 39 56 86
-0.3768455684185028 -0.4153302311897278 7.409333229064941 211 211 213
0.2036571204662323 -0.49921107292175293 7.33339262008667 213 230 211
-1.0919451713562012 1.4852614402770996 6.667144298553467 29 32 25
-0.5791731476783752 0.12364611774682999 7.264989376068115 158 175 167
-0.35984155535697937 0.16328182816505432 7.376101493835449 125 116 109
-0.4011997878551483 0.5071648955345154 7.669666767120361 130 147 165
-0.08859553933143616 1.7428584098815918 6.111852645874023 113 148 178
-0.3551156222820282 0.24668626487255096 7.520125389099121 122 141 155
-0.38473355770111084 -0.03745224326848984 7.172304153442383 119 104 97
-0.20798735320568085 0.26140984892845154 7.327486991882324 117 137 135
-0.1794692873954773 0.2210848033428192 7.1027703285217285 117 110 104
0.3234134614467621 0.9145559072494507 7.863542556762695 79 68 84
-0.027819721028208733 1.4197025299072266 6.130357265472412 111 87 111
-0.6746169924736023 1.3257508277893066 6.421457767486572 43 49 49
-0.004321590065956116 1.4246327877044678 6.304910182952881 19 23 32
-0.9504137635231018 -0.5804290175437927 8.245295524597168 71 68 77
-0.04786400869488716 -0.4555658996105194 7.175487041473389 196 212 199
0.19094811379909515 0.5231295228004456 7.3223090171813965 69 72 77
0.132843017578125 -0.2564704120159149 7.115568161010742 174 194 185
0.5996091365814209 -0.44155779480934143 7.601550579071045 124 109 114
-0.21298132836818695 1.5439205169677734 6.254417896270752 85 80 103
-0.49036696553230286 1.4600684642791748 6.378987789154053 158 171 188
0.8014288544654846 -0.8706701993942261 7.811037063598633 188 192 169
-0.154608353972435 0.49167418479919434 7.595210075378418 108 118 110
0.6033035516738892 -0.8206692934036255 7.610817909240723 152 148 119
-0.814967691898346 0.8875783681869507 7.432592868804932 50 57 50
0.07154493033885956 1.3620681762695312 6.5640869140625 92 74 90
-0.5013824105262756 0.03158915415406227 7.2217512130737305 117 113 110
-0.21390724182128906 0.1531253308057785 7.274289131164551 117 138 139
-0.49048087000846863 1.5181241035461426 6.2729716300964355 147 156 171
-0.20749104022979736 1.1946628093719482 6.53582763671875 32 50 88
-0.3525250256061554 1.4562740325927734 6.478253364562988 112 104 115
0.662182629108429 -0.7196263074874878 7.7710771560668945 82 71 75
-0.8682771325111389 -0.41949719190597534 8.402231216430664 68 66 80
-1.5812187194824219 1.583247423171997 6.673887252807617 70 96 121
0.18570184707641602 1.2370574474334717 7.203038215637207 174 189 186
-0.6634014844894409 0.9003280401229858 8.107864379882812 90 72 62
0.14956818521022797 0.1600256711244583 7.38885498046875 125 153 167
-1.31350576877594 1.5423890352249146 6.724627494812012 30 35 31
-0.4399118423461914 -0.6614906787872314 8.094279289245605 72 69 78
-0.6899644136428833 1.451042652130127 6.786452770233154 148 142 152
-0.1358220875263214 0.3825559616088867 7.3003950119018555 70 65 69
-0.4994553327560425 1.2094520330429077 6.6613030433654785 176 174 179
0.8219332098960876 -0.8925473690032959 7.835404872894287 143 143 115
-0.28130850195884705 0.1688714325428009 7.243061065673828 82 101 95
-0.5089895725250244 0.4015652537345886 7.747486114501953 40 40 42
-1.172921061515808 1.4815250635147095 6.709695339202881 47 43 44
0.36143189668655396 -0.12403641641139984 7.12605619430542 161 173 163
-0.3586462140083313 0.5547675490379333 7.321373462677002 66 82 81
