ply
format ascii 1.0
element vertex 698
property float x
property float y
property float z
property uchar red
property uchar green
property uchar blue
end_header
-0.688228964805603 1.0132057666778564 7.437472343444824 73 80 72
-0.16515813767910004 1.737044095993042 6.036857604980469 68 67 107
-0.7484844923019409 1.4912875890731812 6.1739959716796875 70 68 118
0.0993146076798439 0.28072601556777954 7.146699905395508 125 149 153
-0.8317936062812805 0.5823477506637573 8.037176132202148 86 75 89
-0.20757298171520233 -0.3397407531738281 7.155765533447266 183 174 165
0.08439028263092041 0.2201635092496872 7.109979629516602 120 136 133
-0.7233918905258179 1.6381498575210571 6.214840888977051 117 147 149
0.2441999316215515 -0.024229487404227257 7.083803653717041 134 144 135
0.26715877652168274 -0.36851057410240173 7.185606479644775 210 220 211
0.44401153922080994 0.19172285497188568 7.2324113845825195 127 157 165
-0.1900022327899933 1.3170034885406494 6.285625457763672 71 104 155
0.6014771461486816 0.09055932611227036 7.334970951080322 120 126 124
0.40276646614074707 -0.2961965799331665 7.216289520263672 77 79 76
0.2224854677915573 1.3182883262634277 7.172688007354736 151 156 136
0.5052611827850342 0.022945212200284004 7.235296726226807 44 44 52
0.6675729155540466 -0.5896864533424377 7.623887538909912 100 89 95
0.562206506729126 0.1051328256726265 7.304184913635254 139 165 178
-0.16462446749210358 1.6742483377456665 6.0588531494140625 108 113 119
-1.097313642501831 1.2457396984100342 6.723514556884766 88 90 89
0.1651395857334137 -0.27107951045036316 7.104831695556641 204 221 215
-0.9487373232841492 0.8702982068061829 7.400130271911621 184 167 147
-0.15096789598464966 -0.20915958285331726 7.100026607513428 197 196 192
0.3031579554080963 -0.2671110928058624 7.152154922485352 211 222 205
0.40286171436309814 0.1832008808851242 7.198434829711914 91 111 118
-0.07449651509523392 -0.2892090082168579 7.090061664581299 181 194 164
-0.13025447726249695 -0.0016088597476482391 7.075937271118164 78 88 87
0.15901826322078705 -0.35855796933174133 7.149898052215576 208 223 216
0.5900627374649048 -0.1733354777097702 7.328989505767822 132 120 104
-0.04036213830113411 -0.6778651475906372 7.602090358734131 27 31 30
0.09691576659679413 -0.12737421691417694 7.060011386871338 175 197 184
-0.07430776953697205 1.5792450904846191 5.994780540466309 107 129 140
0.0312582328915596 1.3107203245162964 7.229658603668213 126 129 118
0.7323840856552124 0.7738460898399353 8.109198570251465 116 145 177
0.5170215368270874 -0.2954014539718628 7.305680751800537 179 189 178
0.5639286041259766 0.2018701732158661 7.334704875946045 122 154 167
0.33994606137275696 -0.23147204518318176 7.148468494415283 196 223 208
0.04516027495265007 -0.28818216919898987 7.100533485412598 181 192 175
-0.9477320909500122 1.6219162940979004 6.2916579246521 104 123 127
0.06696236878633499 0.25850120186805725 7.1223578453063965 113 125 125
0.12592713534832 0.3055775463581085 7.153120040893555 126 150 160
0.3772720396518707 0.29380932450294495 7.234589576721191 114 147 178
0.014486892148852348 -0.6430522799491882 7.502485275268555 185 173 157
-0.03478046879172325 1.2298260927200317 6.384439945220947 139 162 170
0.16722510755062103 -0.10608107596635818 7.0686869621276855 178 199 194
-0.06458909809589386 0.019191987812519073 7.077149391174316 126 139 129
-0.06861384212970734 1.1628124713897705 6.380458831787109 156 176 185
0.27616262435913086 -0.20587879419326782 6.351291656494141 225 238 229
-0.047203321009874344 -0.019997695460915565 7.094049453735352 125 130 124
0.1327981948852539 1.3397181034088135 7.0511674880981445 124 130 142
0.7853091359138489 0.27782177925109863 7.7326812744140625 107 108 126
-1.0055114030838013 1.7001445293426514 6.3029022216796875 69 66 119
-0.3075953722000122 -0.12384909391403198 7.141016960144043 175 192 176
-0.08553935587406158 0.12868139147758484 7.088412284851074 156 174 176
0.03034053184092045 0.2899129390716553 7.133759498596191 128 140 138
0.606121301651001 -0.15959033370018005 7.347084045410156 48 42 52
0.359489768743515 0.15033377707004547 7.163097381591797 132 166 178
-1.2618061304092407 1.4320316314697266 6.327193737030029 45 55 106
0.5011830925941467 0.25082507729530334 7.293929576873779 84 95 117
0.7053436040878296 -0.52263343334198 7.672950744628906 102 83 87
-0.15096789598464966 -0.20915958285331726 7.100026607513428 197 196 192
-0.00976763479411602 -0.3079163730144501 7.117908477783203 207 221 221
-0.789199948310852 1.4460428953170776 6.216682434082031 123 100 126
-0.463479608297348 1.641697883605957 6.149619102478027 119 146 175
-0.8621329069137573 1.5485199689865112 6.25022554397583 103 112 111
0.36201027035713196 0.07087445259094238 7.141944885253906 157 173 173
0.011365908198058605 0.963127076625824 8.082961082458496 18 21 28
-0.07224947959184647 0.026339760050177574 7.067030429840088 138 152 139
-0.398294597864151 1.556492805480957 6.123134613037109 97 123 150
0.2007848024368286 1.3321136236190796 7.107054710388184 177 195 183
0.45586058497428894 -0.5745615363121033 7.720376968383789 80 68 70
-0.031004253774881363 0.815464437007904 7.739175319671631 18 24 24
0.359725683927536 0.2022029608488083 7.177971839904785 115 153 176
-0.6934996247291565 1.7060683965682983 6.19187068939209 79 70 127
0.22144219279289246 0.3147105574607849 7.183466911315918 116 145 163
0.025433527305722237 1.1080198287963867 7.218690872192383 195 195 171
0.0012306811986491084 -0.0987054780125618 7.047236919403076 101 102 88
-0.1699947714805603 0.16032494604587555 7.114181041717529 73 88 85
-0.7515360116958618 1.5542608499526978 6.200672149658203 127 165 178
0.3780944347381592 -0.7928791642189026 7.760690689086914 116 104 104
-2.0540383047773503e-05 -0.17665988206863403 7.078272342681885 78 76 77
-0.3050420582294464 -0.3281574845314026 7.225254058837891 184 173 169
-0.16832536458969116 -0.2906525135040283 7.1357269287109375 98 88 87
0.0735136941075325 1.1357532739639282 7.220499038696289 174 180 154
0.16722510755062103 -0.10608107596635818 7.0686869621276855 178 199 194
0.37134063243865967 0.21387949585914612 7.19215202331543 41 54 63
-0.16378575563430786 0.17786626517772675 7.113239765167236 140 168 169
-1.0095430612564087 -0.5602728128433228 8.183296203613281 93 91 104
0.6319965720176697 0.03007824346423149 7.356319904327393 120 118 119
-0.15405449271202087 -0.11506287008523941 7.08123779296875 90 81 86
-0.37932953238487244 1.493850827217102 6.087283611297607 79 72 106
0.7820037603378296 0.20219361782073975 7.67994499206543 96 88 99
0.47781023383140564 0.21376675367355347 7.289538860321045 123 157 159
-3.0970892906188965 1.8925395011901855 6.107477188110352 187 203 226
0.3617057800292969 0.10339472442865372 7.155018329620361 136 171 173
-0.449146032333374 1.429189682006836 6.259552001953125 43 41 42
0.17152509093284607 0.04072761908173561 7.071871280670166 124 134 123
0.7570475935935974 -0.7006797194480896 7.613389015197754 80 74 74
0.07603359967470169 0.24061089754104614 7.114889621734619 36 44 46
0.29315364360809326 -0.37296807765960693 7.192908763885498 218 234 231
0.18605975806713104 1.4163469076156616 6.629302978515625 119 127 130
-0.054727789014577866 1.3564311265945435 6.354210376739502 21 22 50
0.11978995054960251 0.3198769986629486 7.148904323577881 65 60 57
0.10827226936817169 0.32710298895835876 7.14532470703125 101 106 102
0.0605219267308712 0.028534626588225365 7.059574127197266 121 135 122
-1.1161807775497437 1.5562098026275635 6.3108744621276855 130 172 196
0.35558050870895386 0.34291699528694153 7.253348350524902 46 55 70
-1.662740707397461 1.4657973051071167 6.493371963500977 63 85 132
0.5052978992462158 -0.09784858673810959 7.222672939300537 156 162 160
-0.18207190930843353 1.598610758781433 5.994239807128906 116 150 177
0.9334781765937805 -0.6406465768814087 7.855917930603027 99 99 87
-0.180973082780838 -0.3909403383731842 7.196768760681152 158 145 137
0.634204089641571 1.7017416954040527 7.561251163482666 88 173 255
0.6210096478462219 -0.1754855066537857 7.365483283996582 143 135 124
0.5342698097229004 -0.10785284638404846 7.245946884155273 128 131 120
-0.037296440452337265 -0.7521593570709229 7.731365203857422 22 22 22
-0.12741197645664215 -0.04338223859667778 7.086932182312012 138 154 154
-0.661237359046936 1.2648719549179077 6.919054985046387 22 21 27
-0.4512660503387451 1.6923463344573975 6.239718914031982 102 119 129
0.09603188931941986 0.3818453252315521 7.183445930480957 75 71 70
0.662003755569458 -0.4571062922477722 7.688188076019287 110 89 94
-0.08131568878889084 1.2421717643737793 6.369338512420654 42 40 54
0.2785623073577881 0.4496806561946869 7.296595096588135 62 78 94
0.7921266555786133 -0.006193800363689661 7.720975875854492 72 66 70
-0.05025002360343933 -0.1535523533821106 7.070932388305664 164 178 178
-0.17021605372428894 -0.32786285877227783 7.150629043579102 88 91 100
0.18605975806713104 1.4163469076156616 6.629302978515625 119 127 130
0.19479405879974365 0.022743867710232735 7.069952487945557 155 180 174
-0.14802387356758118 -0.08595278859138489 7.081851005554199 78 85 78
-0.14600789546966553 1.4414613246917725 6.327198505401611 51 49 54
0.2737448811531067 -0.31140345335006714 7.160396575927734 194 211 203
0.005776803474873304 1.3543883562088013 6.4025559425354 21 26 66
0.11321791261434555 0.34390321373939514 7.169920921325684 109 100 101
-1.0669238567352295 1.2892667055130005 6.668013095855713 31 36 40
0.08333399146795273 1.4871196746826172 6.153661727905273 79 68 72
-0.01518832053989172 0.05553676187992096 7.05906343460083 131 149 127
0.1885969042778015 0.0014190523652359843 7.066173076629639 160 177 167
0.12966090440750122 0.1830686330795288 7.100725173950195 144 167 175
0.6993345022201538 -0.8070756793022156 7.628360748291016 125 127 105
-1.5082054138183594 1.6380277872085571 6.421204090118408 122 132 131
0.4456082582473755 -0.417488694190979 7.344160079956055 206 222 212
0.36709073185920715 -0.1425214409828186 7.135499477386475 189 206 200
-0.2743266224861145 0.0032556429505348206 7.130197048187256 72 85 93
-0.0679745003581047 -0.440653532743454 7.197946548461914 211 232 223
-1.2300477027893066 1.6506198644638062 6.351185321807861 95 83 131
0.4677475094795227 -0.31511226296424866 7.266797065734863 208 225 215
-0.9008929133415222 1.4391367435455322 6.25108003616333 115 113 126
-1.3937952518463135 1.6588846445083618 6.415999889373779 44 45 91
0.03908112645149231 0.1358194798231125 7.074901103973389 120 136 125
0.27223023772239685 -0.0299387164413929 7.08216667175293 131 150 130
-0.25995564460754395 0.08597962558269501 7.132716655731201 157 173 172
0.6665804982185364 0.07938922196626663 7.555717468261719 108 105 124
-0.3278847634792328 0.01476849801838398 7.134677410125732 53 53 63
-0.5509230494499207 0.8478330373764038 8.077396392822266 65 55 54
-1.138069987297058 1.3630380630493164 6.559032917022705 28 27 33
0.4587136209011078 -0.34089699387550354 7.287844181060791 167 177 168
0.00837829988449812 1.6882563829421997 6.014950275421143 68 80 104
0.44248417019844055 0.17723867297172546 7.213841438293457 79 107 119
-1.0510740280151367 1.629530668258667 6.328454494476318 128 160 185
-0.17021605372428894 -0.32786285877227783 7.150629043579102 88 91 100
0.41842344403266907 0.30958935618400574 7.266569137573242 86 114 135
-1.1452913284301758 1.6487212181091309 6.34213924407959 64 51 71
-0.10151232033967972 -0.46417301893234253 7.2366108894348145 78 76 79
0.37629014253616333 0.27140170335769653 7.24169397354126 115 154 171
-0.21686787903308868 0.20388014614582062 7.146112442016602 152 169 176
0.19349712133407593 -0.2730618119239807 7.069982528686523 178 195 185
0.36633047461509705 -0.10775932669639587 7.131600379943848 170 182 168
-0.9938322901725769 1.5862576961517334 6.734701156616211 202 208 222
0.4847196638584137 -0.09263300150632858 7.211721420288086 149 166 160
-0.19484293460845947 1.4566705226898193 6.205709934234619 134 123 140
0.23640452325344086 -0.19991955161094666 7.152096748352051 178 198 196
0.04886041209101677 0.11470261961221695 7.074810981750488 52 67 64
-0.5998843908309937 1.4543612003326416 6.166661262512207 153 171 185
-0.15007427334785461 1.5398805141448975 6.02498197555542 50 50 102
0.4970873296260834 -0.544746994972229 7.723333835601807 108 96 106
0.19938822090625763 -0.5057374835014343 7.276369571685791 211 229 215
0.027106858789920807 0.30772989988327026 7.1498026847839355 70 60 59
0.4977927803993225 -0.15747499465942383 7.226377010345459 173 180 173
-0.3526623547077179 0.19464416801929474 7.213236331939697 55 54 70
-0.92044997215271 1.3635276556015015 6.58473014831543 58 55 64
-0.43895187973976135 -0.124790258705616 7.232952117919922 179 185 185
-0.9376114010810852 1.2789433002471924 6.685323238372803 43 46 55
0.32149356603622437 1.4491994380950928 6.613065719604492 116 116 108
0.7561144232749939 -0.7466267347335815 7.623321533203125 84 66 62
-0.13723225891590118 -0.09582982957363129 7.08847188949585 162 174 174
-1.1975394487380981 1.6026145219802856 6.431400299072266 133 168 190
-0.9574031233787537 1.4609571695327759 6.236667633056641 50 57 101
-0.05349184572696686 1.1452714204788208 6.386437892913818 43 70 115
-0.49323228001594543 -0.08512471616268158 7.255859851837158 143 132 126
-0.9179438352584839 1.525409460067749 6.264842510223389 75 88 79
0.015978768467903137 -0.06295377761125565 7.059866428375244 72 83 87
0.5839207768440247 0.26366865634918213 7.408926963806152 85 129 164
0.006178901996463537 -0.16474352777004242 7.076333999633789 134 137 130
-2.945946216583252 1.7529489994049072 5.811991214752197 189 209 246
-0.22734080255031586 0.16007794439792633 7.119243144989014 138 153 158
0.32149356603622437 1.4491994380950928 6.613065719604492 116 116 108
0.5713236927986145 -0.1435132771730423 7.2752156257629395 140 136 125
0.1827113777399063 -0.06965753436088562 7.060488224029541 183 197 182
-0.022129882127046585 -0.17873495817184448 7.077138900756836 158 159 151
0.012234754860401154 -0.4412919878959656 7.1969499588012695 202 213 207
-0.2066579908132553 1.6329749822616577 6.075477123260498 102 120 134
0.13780240714550018 0.32956674695014954 7.1694746017456055 110 127 134
-1.088118553161621 1.3370610475540161 6.605195999145508 14 15 19
-1.3940248489379883 1.6264325380325317 6.437795162200928 58 49 76
0.5458757877349854 -0.16905942559242249 7.28491735458374 134 127 109
0.20603005588054657 -0.3371332287788391 7.15076208114624 177 192 171
0.5960522294044495 0.12381666153669357 7.350278854370117 128 160 171
-0.04941149801015854 -0.8321881294250488 7.650305271148682 156 176 183
0.207372784614563 -0.4249706566333771 7.1909284591674805 191 209 183
-0.9275404214859009 1.2439838647842407 6.707186222076416 123 118 115
0.4025053083896637 0.28154683113098145 7.226133346557617 84 113 121
0.2999587059020996 0.36566659808158875 7.217772960662842 100 119 117
-1.367750644683838 1.4247026443481445 6.360914707183838 61 57 118
0.31504133343696594 0.3394656479358673 7.247530937194824 84 111 122
-0.009491218253970146 1.264366865158081 6.390181541442871 172 198 197
-0.10746102035045624 0.05013659968972206 7.092799663543701 149 176 171
0.6280734539031982 -0.8082795739173889 7.657098293304443 44 43 41
-1.1135610342025757 1.1069401502609253 7.3510541915893555 132 113 71
0.023512717336416245 -0.587084174156189 7.3613810539245605 224 242 230
-0.03669309616088867 0.4480154812335968 7.2402238845825195 87 68 64
0.010367480106651783 -0.0537504218518734 7.07295560836792 53 55 54
0.055604759603738785 1.321563959121704 7.244888782501221 91 90 88
-0.4564001262187958 -0.10214181989431381 7.234741687774658 113 103 101
-0.18762896955013275 1.0650888681411743 6.376347541809082 42 56 93
-1.6741914749145508 1.6604249477386475 6.490450859069824 63 82 124
0.007767528761178255 -0.09005790948867798 7.061626434326172 42 46 45
0.38301119208335876 0.17031969130039215 7.185150623321533 139 153 166
0.0910719707608223 -0.30189764499664307 7.110898494720459 197 217 208
-0.0986597016453743 0.3153732120990753 7.162956714630127 84 74 72
0.34079426527023315 -0.49274083971977234 7.345820426940918 152 164 152
-0.2743266224861145 0.0032556429505348206 7.130197048187256 72 85 93
-0.03209329769015312 1.4288119077682495 6.368673801422119 58 58 68
0.11521739512681961 -0.4472813904285431 7.199820518493652 227 243 233
-0.7900406122207642 0.9196860790252686 7.406939506530762 101 84 74
0.13040246069431305 0.13008728623390198 7.091957092285156 134 163 167
-0.934749186038971 -0.21707536280155182 8.174631118774414 100 91 96
-0.03669309616088867 0.4480154812335968 7.2402238845825195 87 68 64
-0.1563597321510315 1.5696511268615723 6.025079250335693 96 117 118
-1.6254146099090576 1.5656282901763916 6.475409030914307 130 162 183
-0.7877655029296875 1.2796977758407593 6.75129508972168 66 67 71
-0.231867715716362 1.5078614950180054 6.047354221343994 87 74 120
-1.6254146099090576 1.5656282901763916 6.475409030914307 130 162 183
-1.0160486698150635 1.3837018013000488 6.624786853790283 131 137 151
-1.108134388923645 1.25948965549469 6.700445652008057 38 46 48
-0.12014427036046982 1.3282626867294312 6.314481735229492 68 100 149
0.3170323371887207 0.28190162777900696 7.237088680267334 120 152 177
-0.02486947365105152 -0.23599332571029663 7.08636474609375 206 223 217
0.4141792058944702 0.26116621494293213 7.24159574508667 96 119 135
0.15961627662181854 1.4256197214126587 6.615097999572754 57 54 63
0.6614360213279724 -0.9095754623413086 7.675749778747559 188 181 173
-0.41203954815864563 -0.10111638158559799 7.196941375732422 168 179 173
0.127653107047081 1.1739245653152466 7.184035301208496 125 126 118
-0.475418359041214 -0.08497867733240128 7.24728536605835 178 178 170
-0.4768853783607483 1.517265796661377 6.09678316116333 28 39 59
-0.08459732681512833 0.9136134386062622 7.78212308883667 93 91 79
0.0916268453001976 1.4638080596923828 6.291831016540527 135 115 127
0.031194273382425308 1.4248110055923462 6.458009243011475 77 86 69
-0.1579238623380661 1.2916837930679321 6.303466320037842 56 75 115
-0.1537742018699646 1.6433398723602295 6.033763408660889 120 151 179
-1.6292808055877686 1.53678297996521 6.475537300109863 124 161 180
0.5000247955322266 -0.08407320827245712 7.2120041847229 70 74 75
0.09168631583452225 1.3386826515197754 7.056406497955322 148 156 159
-0.439113587141037 1.4576224088668823 6.193797588348389 124 122 143
-1.0193796157836914 1.2838211059570312 6.672706127166748 133 138 134
-0.09820699691772461 0.2514813542366028 7.143045902252197 121 142 143
0.5217140316963196 0.03880918025970459 7.237123489379883 123 123 121
0.30030927062034607 0.14551091194152832 7.121807098388672 142 172 183
-0.07798252254724503 1.2775758504867554 6.353996276855469 68 85 115
0.0012306811986491084 -0.0987054780125618 7.047236919403076 101 102 88
-1.4108861684799194 1.4287298917770386 6.387086391448975 34 39 71
-0.3582807183265686 1.4768311977386475 6.06223201751709 169 165 179
0.12829191982746124 0.2870223820209503 7.137497425079346 101 129 143
0.7233355641365051 -0.7739977240562439 7.647507667541504 110 86 86
0.28000205755233765 -0.33651554584503174 7.170315265655518 218 231 214
-0.29361191391944885 0.10686400532722473 7.120851993560791 95 92 85
-0.968362033367157 0.961269199848175 7.405501365661621 66 67 71
-0.9043322205543518 1.28142249584198 6.690980911254883 180 184 170
-0.4564001262187958 -0.10214181989431381 7.234741687774658 113 103 101
-0.24132205545902252 1.3546971082687378 6.2698869705200195 42 74 95
0.22457492351531982 1.2886308431625366 7.178625106811523 59 89 77
-0.13025447726249695 -0.0016088597476482391 7.075937271118164 78 88 87
-0.1632523089647293 -0.38762933015823364 7.189022064208984 224 221 214
0.2198900282382965 -0.49351611733436584 7.275394916534424 153 168 165
-0.18889090418815613 0.2632107734680176 7.16745138168335 70 76 76
-0.4719937741756439 -0.1492883265018463 7.2471795082092285 168 152 136
0.35830530524253845 -0.35912996530532837 7.224300384521484 209 230 225
-0.04905916005373001 -0.4741254448890686 7.237998008728027 110 124 125
0.7424122095108032 0.5728634595870972 8.024809837341309 107 108 138
0.03253060206770897 0.9608040452003479 7.688987731933594 28 33 29
0.5920968055725098 -0.14393137395381927 7.316319465637207 139 127 115
-0.08854358643293381 1.073533535003662 6.400704860687256 68 96 120
0.06663864850997925 1.064852237701416 7.525969982147217 24 28 29
0.2003229707479477 1.4115022420883179 6.65189266204834 35 42 48
0.3073136806488037 0.4155780076980591 7.285589218139648 65 92 111
-0.9768974781036377 1.265405535697937 6.679715633392334 57 64 70
0.5984684824943542 0.10635638982057571 7.334826469421387 44 45 76
-0.13030943274497986 1.6718698740005493 6.055129528045654 97 119 117
0.20690540969371796 -0.3001542389392853 7.127746105194092 171 184 177
0.22897107899188995 0.34673652052879333 7.201132297515869 115 139 151
-1.676619052886963 1.3874547481536865 6.550323486328125 152 163 155
-0.147870272397995 -0.1859927922487259 7.094664096832275 192 192 194
-0.024327019229531288 -0.2091052234172821 7.081027984619141 192 204 202
-0.23865757882595062 -0.14267079532146454 7.114491939544678 155 152 143
0.7003577351570129 -0.8257626295089722 7.599212646484375 109 112 93
-0.2999555468559265 0.006861650384962559 7.13979959487915 73 88 83
0.07640218734741211 0.18801018595695496 7.107977390289307 128 143 146
0.3398820459842682 0.15236546099185944 7.162207126617432 110 137 148
-0.32291823625564575 1.5881749391555786 6.077937602996826 126 163 182
0.28072717785835266 -0.40283074975013733 7.211381435394287 238 249 245
-0.7762203812599182 1.124510645866394 7.462591171264648 164 160 157
-0.43170297145843506 -0.832544207572937 7.971233367919922 133 118 125
-0.21173107624053955 -0.29877999424934387 7.145023345947266 173 152 135
-0.34116479754447937 -0.17569145560264587 7.172962665557861 176 187 171
-0.8787102699279785 1.3264155387878418 6.690637588500977 22 23 25
-0.5907027125358582 1.676024079322815 6.151838302612305 42 40 61
-0.17438791692256927 -0.2022201418876648 7.093593597412109 172 163 156
0.11548376083374023 0.18827776610851288 7.099365711212158 122 142 149
0.45558568835258484 -0.8546842336654663 7.73562479019165 123 114 117
-0.7877655029296875 1.2796977758407593 6.75129508972168 66 67 71
0.6117129921913147 -0.10109398514032364 7.332576751708984 89 83 69
-1.085184931755066 1.4367517232894897 6.289106845855713 181 173 196
0.07145699858665466 1.4343061447143555 6.51494026184082 57 67 68
-1.5751873254776 1.4820128679275513 6.469352722167969 67 67 77
-0.016786793246865273 -0.36727017164230347 7.145341873168945 214 233 229
-1.6577728986740112 1.5522159337997437 6.493734359741211 119 164 193
0.4901968836784363 0.31013023853302 7.326667308807373 95 102 131
-0.2702897787094116 -0.12735241651535034 7.132081031799316 184 194 186
0.3050822615623474 -0.5213387608528137 7.367143630981445 221 232 216
0.08327396214008331 -0.3504735827445984 7.133798599243164 192 208 197
-0.6177340745925903 1.5188602209091187 6.15985631942749 32 36 71
-0.11922784894704819 1.046203374862671 6.402467727661133 27 34 63
-0.7954428791999817 1.3258016109466553 6.738596439361572 33 28 32
-0.38448458909988403 1.4312644004821777 6.293650150299072 98 98 108
0.13536155223846436 -0.4022657573223114 7.172904014587402 221 237 227
-0.12447702139616013 0.8907020688056946 7.772711753845215 38 35 42
-0.2295781672000885 1.4638532400131226 6.239060401916504 146 127 133
0.10377219319343567 1.4731769561767578 6.259883880615234 136 125 142
0.6221775412559509 1.2340551614761353 7.701250076293945 126 125 105
-0.027756575495004654 -0.7152031660079956 7.686018466949463 75 77 76
0.14870020747184753 -0.24087971448898315 7.0887837409973145 206 220 205
0.4279037117958069 1.6828992366790771 6.934523105621338 27 50 118
-0.20559002459049225 0.15746192634105682 7.118113040924072 127 141 141
-1.003280758857727 1.2469394207000732 6.694913864135742 184 192 179
0.558384358882904 0.3333258032798767 7.433554172515869 95 122 139
-0.23499524593353271 1.0027190446853638 7.3847503662109375 77 91 94
-0.19525527954101562 -0.3544507920742035 7.1775994300842285 188 180 167
-0.1553165316581726 -0.06286326050758362 7.081206321716309 174 186 174
0.11453457176685333 0.034039415419101715 7.064149379730225 123 137 138
-0.0005657658912241459 0.19652889668941498 7.098162651062012 98 117 113
-0.38077643513679504 1.475589394569397 6.074501037597656 174 171 202
0.035965822637081146 0.2631630003452301 7.1402130126953125 99 118 112
-0.031196577474474907 0.3006417453289032 7.159250259399414 117 108 93
-0.8890691995620728 1.4466071128845215 6.226611614227295 179 165 198
0.5475049018859863 0.03360864892601967 7.277782440185547 112 129 123
-1.555408000946045 1.3581016063690186 6.596614360809326 155 165 164
-0.464617520570755 1.6121349334716797 6.130570888519287 109 139 175
0.12600301206111908 1.429304599761963 6.582352638244629 93 99 95
0.7837425470352173 -0.15979669988155365 7.661226272583008 76 62 62
-0.3894193470478058 -0.04431230574846268 7.178557872772217 162 174 160
0.7994970083236694 -0.2183758020401001 7.680886745452881 96 75 80
-0.05773294344544411 -0.111832395195961 7.067737102508545 87 92 86
0.616007924079895 0.18649566173553467 7.406005859375 42 50 71
-0.9578742384910583 0.830597460269928 7.300981044769287 176 167 138
0.49365684390068054 0.2279874086380005 7.276348114013672 29 50 79
0.3679574429988861 -0.4758460819721222 7.333444595336914 214 225 219
-0.9373881816864014 1.0315849781036377 7.334832668304443 56 58 57
-0.09114505350589752 1.5039622783660889 5.994103908538818 152 139 169
-0.14109474420547485 -0.49389657378196716 7.298087120056152 205 191 191
0.24550271034240723 1.407447338104248 6.675313472747803 125 144 151
-0.11321931332349777 0.3180772066116333 7.163286209106445 119 110 105
-0.22147059440612793 -0.15609417855739594 7.10145902633667 125 107 103
0.006671937182545662 0.07833027094602585 7.070566177368164 151 174 166
-0.37507355213165283 -0.1424415111541748 7.190280437469482 152 160 149
0.616007924079895 0.18649566173553467 7.406005859375 42 50 71
-0.14742723107337952 1.6004705429077148 6.053303241729736 117 132 135
-0.25933876633644104 0.05290326848626137 7.119046688079834 112 124 124
0.10835709422826767 -0.4271954298019409 7.189123153686523 128 134 130
-0.8845285773277283 1.2953964471817017 6.687053203582764 113 120 113
0.46622470021247864 -0.1561107486486435 7.218682765960693 166 175 174
-0.2515765130519867 1.7198864221572876 6.058969020843506 80 77 104
0.5163402557373047 0.17607925832271576 7.264211177825928 104 135 155
0.6611369848251343 -0.8949955105781555 7.665089130401611 201 208 200
0.20014989376068115 -0.09809450060129166 7.0746331214904785 163 177 177
-0.29806196689605713 -0.16550582647323608 7.147066116333008 65 65 67
-0.08413588255643845 1.6517505645751953 6.043415069580078 106 120 131
0.3827466368675232 0.20012304186820984 7.194859981536865 123 146 162
0.6176243424415588 0.016746368259191513 7.348662376403809 45 46 67
0.2360731065273285 0.18708963692188263 7.1386284828186035 140 160 167
-2.5414247512817383 1.6089130640029907 5.339989185333252 191 206 245
-0.07763589918613434 -0.15470163524150848 7.074190139770508 193 205 203
0.3679227828979492 0.326511949300766 7.2597174644470215 90 117 136
0.7288735508918762 0.8835806250572205 7.749076843261719 123 106 114
-0.025049706920981407 -0.45971521735191345 7.221138954162598 232 245 238
0.5762283205986023 0.22459305822849274 7.381418228149414 84 117 158
-0.3668835163116455 0.035364698618650436 7.165003776550293 150 139 133
-0.13129369914531708 0.25513187050819397 7.127749919891357 117 137 138
-0.1642080843448639 -0.44027405977249146 7.244429111480713 224 214 212
0.1827113777399063 -0.06965753436088562 7.060488224029541 183 197 182
-0.16239012777805328 1.1098147630691528 6.338315963745117 103 133 169
0.34016168117523193 1.4116483926773071 6.744303226470947 80 84 95
-0.7505448460578918 1.3087657690048218 6.770393371582031 24 26 25
-0.16718152165412903 -0.6217287182807922 7.535911560058594 205 198 179
-0.7261698842048645 1.473881483078003 6.175354480743408 62 50 96
0.11909447610378265 -0.8426783680915833 7.812501430511475 112 105 112
1.013135313987732 0.8654208183288574 8.20222282409668 165 226 255
-0.08519979566335678 -0.13992775976657867 7.080532073974609 88 88 88
-0.11911427974700928 -0.6788730025291443 7.714290618896484 31 35 34
-1.0550508499145508 1.1474547386169434 7.379208087921143 49 47 48
0.2092103511095047 0.3597341775894165 7.209457874298096 92 116 128
-0.04346495866775513 0.31800228357315063 7.154514789581299 59 57 58
0.4676979184150696 0.32329261302948 7.312867641448975 27 45 49
-0.5168007612228394 1.632102370262146 6.135350227355957 34 54 89
-0.9962719082832336 1.3294105529785156 6.674966335296631 21 20 18
-0.30448678135871887 1.5615320205688477 6.096016883850098 99 126 156
-0.20559002459049225 0.15746192634105682 7.118113040924072 127 141 141
-0.19897304475307465 1.0340667963027954 6.381650924682617 111 149 185
0.017913127318024635 1.2269766330718994 6.411989212036133 46 81 113
0.011365908198058605 0.963127076625824 8.082961082458496 18 21 28
-0.9810159206390381 1.3914170265197754 6.423743724822998 147 157 169
0.3164291977882385 -0.03442758321762085 7.117557525634766 127 135 124
0.039891839027404785 -0.42036205530166626 7.1911420822143555 198 220 208
-0.1343657225370407 -0.02684776484966278 7.0788960456848145 49 59 61
0.5383649468421936 -0.29955118894577026 7.338099002838135 149 144 124
0.12444823235273361 -0.3839377462863922 7.156423568725586 121 131 120
0.31854212284088135 -0.39112401008605957 7.232331275939941 216 235 229
-0.11479958146810532 1.5133050680160522 5.998219966888428 85 70 111
0.5286154747009277 0.035465750843286514 7.252758026123047 121 117 106
0.2708793878555298 -0.4247947931289673 7.221162796020508 219 236 228
-0.024685144424438477 1.4169883728027344 6.409502983093262 9 9 11
0.6359196305274963 1.1084544658660889 7.754807472229004 51 43 54
-0.14449810981750488 1.3629227876663208 6.320049285888672 19 24 53
-1.3704955577850342 1.5233774185180664 6.381078243255615 129 156 186
0.43036702275276184 -0.3103010654449463 7.219876766204834 178 200 188
0.4901968836784363 0.31013023853302 7.326667308807373 95 102 131
-0.8301177024841309 1.2725203037261963 6.728071689605713 49 52 57
-0.6822327375411987 1.4689732789993286 6.181893825531006 176 171 175
-0.7393023371696472 1.3645603656768799 6.812320709228516 16 17 19
-0.3260594308376312 -0.8159463405609131 7.9607977867126465 136 120 123
-0.22071388363838196 0.18659138679504395 7.13385009765625 133 159 158
-0.0954112857580185 0.8462094664573669 7.790991306304932 148 151 144
-0.9768974781036377 1.265405535697937 6.679715633392334 57 64 70
0.7086665630340576 -0.8651219606399536 7.608578681945801 91 93 88
-0.7187694907188416 1.3075774908065796 6.807736873626709 31 30 35
-0.5839051604270935 1.5021135807037354 6.127634048461914 78 69 116
0.06592778116464615 0.2918058931827545 7.13224458694458 61 62 66
-0.3353666365146637 -0.20475047826766968 7.172150611877441 178 166 154
0.2868306040763855 -0.47369539737701416 7.27944278717041 215 234 228
0.13034655153751373 -0.4549254775047302 7.220341205596924 193 204 190
-0.5098475217819214 1.6583281755447388 6.142822265625 105 131 156
0.07729649543762207 -0.12389953434467316 7.063239097595215 78 82 65
-0.8900431990623474 1.4642553329467773 6.231801986694336 78 66 112
-1.3365426063537598 1.4208697080612183 6.374371528625488 152 148 165
0.2461126148700714 1.3164656162261963 7.1974992752075195 67 104 86
-1.0924338102340698 1.2764610052108765 6.65079402923584 40 50 49
0.3576306998729706 1.3683353662490845 6.979763031005859 49 55 55
0.5444037318229675 -0.310405969619751 7.345304489135742 41 45 46
-1.0994168519973755 1.1464990377426147 7.381058216094971 118 108 81
0.05602379888296127 0.002398855984210968 7.044195175170898 118 133 128
-0.07097774744033813 1.0669910907745361 7.243640422821045 160 166 132
-0.04287802428007126 1.5027804374694824 6.02500581741333 116 106 115
-1.091434121131897 1.2759668827056885 6.648586273193359 40 50 49
-0.02581064961850643 -0.12872861325740814 7.07578706741333 156 147 138
0.6256265044212341 -0.7408962249755859 7.670880317687988 81 68 78
0.39132192730903625 0.2806513011455536 7.228686332702637 93 117 143
-0.14505647122859955 1.5733922719955444 5.998022556304932 119 155 171
-0.5619288086891174 -0.2786113917827606 7.471669673919678 180 163 156
0.4339066743850708 0.34517139196395874 7.313758850097656 108 132 170
0.6256265044212341 -0.7408962249755859 7.670880317687988 81 68 78
0.15215732157230377 -0.5457704067230225 7.317486763000488 220 234 221
-0.14959308505058289 -0.35278940200805664 7.177994728088379 206 221 218
-1.6662201881408691 1.4169094562530518 6.439605712890625 85 106 135
-0.9040665030479431 -0.7187550663948059 8.13287353515625 105 99 101
0.24276846647262573 -0.39755433797836304 7.191756248474121 220 233 216
-0.8269540667533875 1.2496318817138672 6.74675178527832 180 179 158
0.5106959939002991 1.2692805528640747 7.7747368812561035 162 157 127
-0.07224947959184647 0.026339760050177574 7.067030429840088 138 152 139
-1.3724949359893799 1.6326711177825928 6.618514060974121 135 162 183
0.0991087332367897 -0.4917408227920532 7.243645191192627 235 248 228
0.21466666460037231 0.08353555202484131 7.090175151824951 37 49 65
-1.5672662258148193 1.5977061986923218 6.457992076873779 110 133 167
-0.39739567041397095 -0.3106512427330017 7.279504776000977 197 195 183
0.4945559501647949 0.2577313780784607 7.307400226593018 95 108 117
0.5131410956382751 1.2308419942855835 7.747565269470215 61 56 50
-0.3668687641620636 0.2103208750486374 7.221629619598389 150 165 170
0.0076310280710458755 1.388596773147583 6.486869812011719 20 31 49
-0.7484844923019409 1.4912875890731812 6.1739959716796875 70 68 118
-3.001981735229492 1.853525161743164 6.037360191345215 186 209 250
0.03965840861201286 1.1900027990341187 7.192439079284668 113 158 135
-0.4173662066459656 1.4682103395462036 6.123198986053467 130 126 141
-0.3136187791824341 0.236848846077919 7.189438343048096 132 158 155
0.9006752967834473 -0.5977814793586731 7.840691566467285 66 58 69
-0.22738929092884064 1.451825499534607 6.259965896606445 78 75 84
-0.20631766319274902 1.0236239433288574 7.337867736816406 81 102 107
0.26320984959602356 -0.8412039279937744 7.792288780212402 111 100 108
-0.20858822762966156 0.06596826761960983 7.1013946533203125 148 167 165
0.4362443685531616 -0.44763076305389404 7.35983419418335 210 212 199
-0.33565768599510193 -0.03664253652095795 7.150390148162842 158 174 171
0.5256956815719604 -0.13605467975139618 7.249418258666992 173 182 165
-2.5821850299835205 1.6954970359802246 5.533522129058838 190 210 245
-1.2552980184555054 1.426870584487915 6.337691783905029 172 180 216
0.4183277189731598 1.314599871635437 7.817140102386475 26 27 32
-0.014641712419688702 -0.5986154675483704 7.392945289611816 218 231 214
0.5083030462265015 -0.0724601298570633 7.226269245147705 178 176 163
-1.2544983625411987 1.5830800533294678 6.382444858551025 130 167 185
-0.34780722856521606 -0.22262482345104218 7.174657821655273 190 175 168
-0.3105897307395935 -0.1549321413040161 7.154419422149658 189 192 181
0.3589198887348175 1.5556821823120117 6.565401077270508 81 99 147
-1.6700654029846191 1.46082603931427 6.460967063903809 154 222 255
-0.15298962593078613 -0.19604693353176117 7.090310573577881 76 80 89
-0.09297504276037216 -0.15327799320220947 7.074398994445801 169 185 184
0.04861847311258316 0.2758757174015045 7.122856616973877 68 68 68
-0.5989065766334534 1.5443313121795654 6.14921760559082 29 46 56
-0.1424397975206375 1.6716166734695435 6.035928249359131 109 128 126
0.023842312395572662 0.4599462151527405 7.239517688751221 66 66 64
0.4856523871421814 -0.14393293857574463 7.216355800628662 59 69 61
0.26519936323165894 -0.3452942967414856 7.1558146476745605 188 197 176
-0.5631983876228333 1.6474964618682861 6.15714693069458 60 76 101
0.6765291094779968 -0.029677286744117737 7.543471813201904 119 107 107
0.11060259491205215 0.15049193799495697 7.084949493408203 126 140 140
-1.1392258405685425 1.2583942413330078 6.670738220214844 187 191 177
0.05115112289786339 1.661680817604065 5.999371528625488 87 102 109
0.2198900282382965 -0.49351611733436584 7.275394916534424 153 168 165
-0.1811489462852478 0.1731080859899521 7.12719202041626 156 171 164
0.4642750918865204 1.3416398763656616 7.796262741088867 49 47 48
-0.876232922077179 1.581758975982666 6.260496139526367 104 114 126
-0.1724979430437088 -0.1804206669330597 7.095164775848389 173 169 160
0.6016038060188293 -0.3087495267391205 7.426197052001953 84 64 65
-0.03293860703706741 0.24670985341072083 7.12044095993042 136 151 154
-0.4692643880844116 0.026008138433098793 7.233473777770996 126 108 108
-0.10329265147447586 1.473222017288208 6.306674480438232 112 106 118
-0.4181102514266968 1.447244644165039 6.259811878204346 138 151 167
0.4366058111190796 -0.25167766213417053 7.22380256652832 159 173 158
0.5386124849319458 0.04255829378962517 7.2582550048828125 50 56 68
0.5197274088859558 0.3126506507396698 7.359841823577881 89 108 151
-0.025189748033881187 -0.5159657001495361 7.27194881439209 228 245 239
0.29884612560272217 1.677605390548706 6.503717422485352 65 63 128
0.5475049018859863 0.03360864892601967 7.277782440185547 112 129 123
0.684930682182312 -0.5602227449417114 7.672569751739502 89 72 80
0.11891113221645355 1.1584115028381348 7.261375427246094 95 107 103
-0.7308336496353149 1.4451922178268433 6.188161849975586 108 94 107
0.5083765983581543 0.21287964284420013 7.282043933868408 122 149 168
-0.04298758879303932 -0.7904537916183472 7.638524055480957 42 52 53
-1.6398000717163086 1.6140867471694946 6.492955207824707 99 101 113
-1.1089932918548584 1.2423179149627686 6.696475982666016 168 175 168
0.0422760434448719 1.4326883554458618 6.46973180770874 33 37 38
0.10150445997714996 -0.706787645816803 7.804201602935791 69 67 68
0.10280259698629379 0.40333372354507446 7.191623687744141 67 69 66
0.3886854648590088 0.23832522332668304 7.21535587310791 94 122 143
-1.5261725187301636 1.400968313217163 6.369720935821533 107 119 131
0.08333376049995422 -0.1846379041671753 7.080374240875244 170 178 167
-0.2724207043647766 1.4945913553237915 6.0388360023498535 86 75 109
0.5044220089912415 0.3231169283390045 7.360185623168945 24 31 60
-0.11795755475759506 1.0630662441253662 6.382707595825195 29 43 70
0.47205764055252075 -0.8626325130462646 7.716785430908203 112 104 115
-0.08155165612697601 1.3668752908706665 6.3896355628967285 19 23 34
-0.7227765321731567 1.574188470840454 6.217165470123291 111 127 140
-0.024256732314825058 1.094199538230896 7.323969841003418 83 89 85
0.5810874104499817 1.3267070055007935 7.743430137634277 108 102 86
0.3398820459842682 0.15236546099185944 7.162207126617432 110 137 148
-0.9151002764701843 1.4387620687484741 6.336206912994385 144 139 162
-0.6172603368759155 1.6077486276626587 6.160505771636963 20 37 57
0.48377683758735657 0.18078464269638062 7.259159088134766 132 158 185
-0.7880116105079651 0.8746308088302612 7.39382266998291 62 65 56
0.04475923255085945 1.4918458461761475 6.089142322540283 123 118 138
0.3299242854118347 -0.3630833625793457 7.203436851501465 214 237 227
-1.060747742652893 1.440942645072937 6.286707878112793 175 168 184
0.01211969181895256 -0.17792175710201263 7.065122604370117 63 61 64
-0.33214762806892395 0.9748545289039612 7.344344139099121 41 77 63
0.41719570755958557 0.06478378176689148 7.1749162673950195 147 171 181
-0.26274755597114563 0.29552701115608215 7.185995578765869 119 139 140
-0.03662140667438507 0.2635143995285034 7.127811908721924 62 77 84
0.09885526448488235 0.34945833683013916 7.176016807556152 38 41 50
-0.181476429104805 1.6157804727554321 6.073923587799072 104 126 137
0.7663260698318481 -0.6727204918861389 7.631283283233643 63 54 59
-0.5359561443328857 1.441586971282959 6.135131359100342 167 175 194
0.25641974806785583 0.7717024683952332 7.6113996505737305 87 93 89
0.8111776113510132 -0.5858702063560486 7.651377201080322 94 72 75
0.5783859491348267 -0.46435248851776123 7.704202175140381 71 59 61
-0.464617520570755 1.6121349334716797 6.130570888519287 109 139 175
0.1383032649755478 1.4175934791564941 6.611418724060059 160 175 170
-0.047203321009874344 -0.019997695460915565 7.094049453735352 125 130 124
-0.2522197365760803 -0.42870479822158813 7.283141136169434 203 188 185
-0.7694909572601318 1.2418454885482788 6.807534694671631 121 122 108
0.11683223396539688 1.4777717590332031 6.258429527282715 91 85 99
-0.010162313468754292 -0.22581776976585388 7.084183692932129 73 74 76
-0.8588562607765198 1.2526605129241943 6.7345476150512695 176 184 163
0.19443662464618683 0.3869461119174957 7.220256328582764 82 82 84
0.07077626883983612 -0.14343121647834778 7.0662102699279785 103 103 91
-0.579547643661499 1.6501706838607788 6.150096893310547 52 59 69
0.023512717336416245 -0.587084174156189 7.3613810539245605 224 242 230
-0.22022853791713715 0.14792849123477936 7.1214919090271 102 118 115
-0.7836006283760071 1.419801950454712 6.408719539642334 53 52 58
-0.03623194620013237 1.2771470546722412 6.362066745758057 66 78 118
-1.4032857418060303 1.5526375770568848 6.415156841278076 120 150 184
-0.09046574681997299 1.1558226346969604 6.356642723083496 143 178 184
0.2417057454586029 -0.37361517548561096 7.177933216094971 210 227 219
-0.16620656847953796 1.0047283172607422 6.409232139587402 123 152 186
-0.6395882368087769 1.2916841506958008 6.788026332855225 12 16 19
0.4520987570285797 -0.44101712107658386 7.363624572753906 104 121 113
0.11683223396539688 1.4777717590332031 6.258429527282715 91 85 99
0.35047441720962524 1.4609370231628418 6.674673080444336 134 135 127
-0.39412370324134827 0.01670326478779316 7.176243305206299 137 128 129
0.04883484169840813 -0.8092232346534729 7.816721439361572 113 94 96
0.8282005190849304 -0.3192080557346344 7.673666954040527 108 97 105
0.5988268852233887 -0.002712537534534931 7.3255085945129395 132 147 150
-0.006384534295648336 1.2018970251083374 6.403622627258301 166 190 190
-0.08057057857513428 1.0605558156967163 6.414499282836914 23 35 75
-0.09061463177204132 1.4992363452911377 6.0573625564575195 101 97 112
-0.3227940797805786 0.9636170268058777 7.443249225616455 143 158 163
0.26696157455444336 -0.17489124834537506 7.100676536560059 166 175 156
0.22603410482406616 1.3669408559799194 6.885956287384033 189 195 193
0.36795762181282043 1.5323293209075928 6.592065811157227 117 132 127
-0.14029452204704285 -0.12029103934764862 7.084799289703369 166 174 176
-0.7569828629493713 0.8652589321136475 7.407581329345703 71 75 60
0.48433616757392883 0.3563610017299652 7.36313533782959 41 45 80
-2.0540383047773503e-05 -0.17665988206863403 7.078272342681885 78 76 77
0.03908112645149231 0.1358194798231125 7.074901103973389 120 136 125
0.07536299526691437 1.5208595991134644 5.982942581176758 138 128 153
-0.5509252548217773 1.4576548337936401 6.132985591888428 135 126 155
0.13180166482925415 -0.8335154056549072 7.837902545928955 95 70 73
-0.2157781720161438 0.30497196316719055 7.184376239776611 109 123 110
0.32450127601623535 1.4595425128936768 6.613341331481934 61 46 65
-0.20653091371059418 0.43414363265037537 7.275391101837158 118 139 132
0.4969065189361572 0.0427544079720974 7.213101387023926 128 119 114
0.12256768345832825 -0.3055533766746521 7.112788200378418 176 186 162
-0.034736644476652145 -0.167318195104599 7.075587272644043 77 79 78
-1.4278180599212646 1.6604026556015015 6.393336296081543 51 71 104
-0.2571581304073334 -0.019446663558483124 7.1083760261535645 145 154 151
0.5309797525405884 0.3869011402130127 7.473698616027832 68 96 135
0.4684198498725891 -0.049701184034347534 7.190853595733643 115 108 98
-0.08789988607168198 -0.39767199754714966 7.175122261047363 190 204 191
0.6676571369171143 -0.7836039662361145 7.656924247741699 113 97 97
-0.0005657658912241459 0.19652889668941498 7.098162651062012 98 117 113
0.11694891005754471 1.1516579389572144 7.29282283782959 143 156 149
0.25604379177093506 -0.013187935575842857 7.087027072906494 174 197 187
-1.0315935611724854 1.4109810590744019 6.419364929199219 169 168 182
0.14444763958454132 1.1380630731582642 7.359622478485107 178 198 186
0.09995374083518982 -0.2798417806625366 7.080587863922119 178 191 165
0.020954091101884842 -0.17408248782157898 7.081924915313721 157 150 142
-0.7079495787620544 1.2961560487747192 6.81426477432251 20 17 24
-0.6133901476860046 1.2755486965179443 6.886600017547607 81 92 114
-0.15790343284606934 0.38367539644241333 7.221582412719727 43 54 50
-1.108134388923645 1.25948965549469 6.700445652008057 38 46 48
0.03540436923503876 1.4316303730010986 6.438745498657227 44 45 50
-0.03876965492963791 -0.12763693928718567 7.067527770996094 168 170 159
-0.1492334008216858 1.1690139770507812 6.33936071395874 152 174 187
0.6007412075996399 -0.8259799480438232 7.689455986022949 51 44 52
0.20422565937042236 1.5781465768814087 6.19738245010376 67 78 124
0.5562828183174133 -0.3882124722003937 7.549663543701172 168 140 126
-1.0296814441680908 1.1115046739578247 7.365731716156006 50 59 58
0.08543272316455841 -0.4998367130756378 7.237725257873535 151 155 154
0.35047441720962524 1.4609370231628418 6.674673080444336 134 135 127
0.29553624987602234 -0.29334527254104614 7.154938697814941 194 210 200
0.11310309916734695 1.4130537509918213 6.59027624130249 153 167 152
0.806215226650238 -0.8838470578193665 7.5987958908081055 200 207 189
-0.14109405875205994 -0.5405185222625732 7.335450172424316 227 240 233
0.6064255833625793 -0.8399566411972046 7.650045394897461 145 143 118
0.2541216015815735 -0.42656049132347107 7.223296642303467 116 126 128
-0.08333561569452286 0.032161545008420944 7.073901653289795 129 139 140
0.40285781025886536 -0.030402718111872673 7.164098262786865 143 151 153
-0.4697118103504181 -0.14849087595939636 7.240319728851318 168 152 136
-1.6738603115081787 1.6193660497665405 6.497000694274902 153 158 162
0.15518786013126373 -0.4639909565448761 7.22175407409668 197 207 206
-0.26274755597114563 0.29552701115608215 7.185995578765869 119 139 140
0.35219788551330566 1.1081064939498901 7.860461711883545 68 52 52
0.5314968228340149 1.3458307981491089 7.775090217590332 52 51 69
0.08833655714988708 0.34678494930267334 7.161077976226807 86 86 86
-0.14159435033798218 -0.8510051369667053 7.671283721923828 106 96 104
-0.15861710906028748 -0.1022607758641243 7.069318771362305 176 192 182
-1.6273150444030762 1.6000875234603882 6.493220806121826 121 146 166
0.3305230736732483 -0.05021367222070694 7.120433330535889 158 169 165
0.09909158945083618 -0.6013035178184509 7.405710697174072 181 181 169
0.8228527307510376 1.0418041944503784 7.970641613006592 158 221 255
-0.4248511493206024 1.451109766960144 6.213822841644287 120 118 139
-0.6721998453140259 1.2479668855667114 6.938364028930664 183 195 217
0.4108988046646118 0.40751394629478455 7.3608551025390625 35 40 69
0.08132315427064896 1.504730463027954 6.086353302001953 140 123 133
-0.5321888327598572 -0.7857705950737 8.014937400817871 124 111 118
-1.004677653312683 1.4026098251342773 6.414422512054443 168 177 182
0.2685009837150574 -0.0006498267175629735 7.100263595581055 137 157 158
0.4980083703994751 0.4590234160423279 7.528008460998535 32 40 61
-0.03939366340637207 0.05802316591143608 7.068653583526611 153 169 159
0.28165122866630554 0.32619431614875793 7.2174391746521 91 117 132
0.18896660208702087 1.450361967086792 6.5219292640686035 138 121 129
-0.3485156297683716 1.5208122730255127 6.069284439086914 61 69 115
-0.18614476919174194 0.2999688386917114 7.198044776916504 62 63 58
0.22743061184883118 1.4168105125427246 6.663523197174072 67 71 82
-0.27289989590644836 0.9313108325004578 7.610084056854248 78 58 47
0.008118066936731339 1.4360438585281372 6.433989524841309 57 55 56
-0.42328253388404846 0.022283654659986496 7.202089309692383 123 115 112
0.17458850145339966 -0.5571408867835999 7.3436102867126465 149 155 151
-0.7837588787078857 1.2981159687042236 6.725429534912109 50 53 58
-0.40565845370292664 -0.16123782098293304 7.195169925689697 166 154 140
0.26519936323165894 -0.3452942967414856 7.1558146476745605 188 197 176
-0.10367260128259659 1.4801061153411865 6.307959079742432 120 116 130
-0.022449055686593056 1.3929712772369385 6.414944648742676 32 40 53
0.007611162960529327 -0.07235929369926453 7.0639190673828125 46 54 65
-0.20580223202705383 1.1613761186599731 6.307301044464111 57 97 133
