ply
format ascii 1.0
element vertex 696
property float x
property float y
property float z
property uchar red
property uchar green
property uchar blue
end_header
-1.4464789628982544 -1.0554133653640747 5.682172775268555 117 79 56
-1.5638325214385986 -0.4787888824939728 5.5251145362854 115 86 68
-1.4278252124786377 -0.33366858959198 5.500072002410889 150 115 94
-2.9151651859283447 -1.7701514959335327 4.73056697845459 173 223 222
-0.9735467433929443 -1.2999426126480103 5.6803297996521 32 39 26
-2.0271291732788086 -0.34203746914863586 5.4159417152404785 127 95 80
-2.296562671661377 -1.8021448850631714 4.88800573348999 87 4 6
-3.219606399536133 -0.7806172370910645 5.369622707366943 148 111 92
-0.8876610994338989 -1.915006160736084 5.2166852951049805 182 193 168
-0.6622835993766785 -0.5654950737953186 5.65808629989624 162 129 110
-0.4808628261089325 -0.46824973821640015 5.64243221282959 158 130 109
-1.0302481651306152 -1.940630316734314 5.1500115394592285 11 32 17
-2.2724485397338867 -1.8086044788360596 4.888829231262207 131 43 47
-2.183666944503784 -1.8123775720596313 4.920243263244629 178 129 148
-1.2146308422088623 -0.39195486903190613 5.538090229034424 168 134 114
-1.446230173110962 -0.8919104933738708 5.640993118286133 138 100 77
-0.6101268529891968 -0.32521215081214905 5.571677207946777 104 75 57
-0.650641143321991 -2.0188980102539062 5.212977409362793 28 51 35
-0.6890361309051514 -1.9788126945495605 5.235988140106201 17 37 23
-1.9592626094818115 -2.967900037765503 6.038543224334717 64 90 107
-1.7866424322128296 -1.8107510805130005 5.051096439361572 168 31 39
-2.9145288467407227 -0.5707867741584778 5.351998329162598 185 155 131
-2.8439583778381348 -1.7738641500473022 4.736567974090576 167 211 213
-0.6660439968109131 -1.1555217504501343 5.7912278175354 128 103 91
-2.312351703643799 -1.1260448694229126 5.567874431610107 52 43 38
-2.892808437347412 -1.7759814262390137 4.723568439483643 5 147 76
-0.41990357637405396 -0.9148803353309631 5.780598163604736 173 138 119
-2.7890098094940186 -0.4508501887321472 5.344659805297852 153 120 103
-1.369410753250122 -0.41076841950416565 5.521331310272217 163 132 114
-1.2549498081207275 -0.41061341762542725 5.540273189544678 200 174 151
-2.7906599044799805 -1.7914308309555054 4.745769500732422 1 121 42
-2.7890098094940186 -0.4508501887321472 5.344659805297852 153 120 103
-1.373910665512085 -0.440926194190979 5.536960601806641 130 110 101
-0.6927836537361145 -0.876722514629364 5.731613636016846 174 146 132
-2.267576217651367 -1.8159096240997314 4.881526470184326 170 201 225
-0.8023963570594788 -0.4123908579349518 5.608782768249512 138 109 89
-1.0991601943969727 -0.14368709921836853 5.52457857131958 156 121 101
-1.2715587615966797 -0.010687103495001793 5.435560703277588 188 148 122
-1.1257047653198242 -0.12481695413589478 5.477577209472656 42 28 16
-2.9594902992248535 -1.801885962486267 4.689225196838379 175 235 221
-1.9672188758850098 -0.29994773864746094 5.418798923492432 68 48 38
-1.8298014402389526 -1.0897148847579956 5.644231796264648 98 65 52
-1.562643051147461 -0.7595786452293396 5.609804153442383 144 103 81
-0.4977765381336212 -0.16571606695652008 5.565808296203613 129 97 80
-1.490431547164917 -0.025657301768660545 5.422427177429199 136 103 86
-2.232532262802124 -1.8100944757461548 4.905706405639648 172 205 236
-0.7702088356018066 -2.0075926780700684 5.189319133758545 7 25 9
-2.303816080093384 -1.7960071563720703 4.888839244842529 178 201 227
-2.310699939727783 -1.8108829259872437 4.874960899353027 201 207 215
-0.4926050007343292 -0.048128824681043625 5.549964904785156 161 124 105
-1.0708154439926147 -0.10751652717590332 5.516145706176758 47 28 21
-0.7154877185821533 -2.0041823387145996 5.207274913787842 14 35 24
-2.3777995109558105 -0.9350477457046509 5.526376724243164 131 104 85
-1.1013668775558472 -0.4793412387371063 5.58569860458374 182 146 123
-2.41239857673645 -0.2717019021511078 5.349294185638428 169 133 111
-0.9305662512779236 -1.9999202489852905 5.145816802978516 188 186 178
-1.1407663822174072 -0.1682179868221283 5.492311477661133 141 108 83
-0.6203510165214539 -1.959423303604126 5.279166221618652 7 127 40
-2.224262237548828 -1.7940043210983276 4.919485569000244 63 7 11
-1.6845884323120117 -0.5579404830932617 5.529464244842529 181 150 130
-2.37187123298645 -1.0196540355682373 5.547510623931885 111 80 59
-2.718877077102661 -1.7932664155960083 4.755278587341309 9 133 56
-2.5192835330963135 -0.2661661207675934 5.331810474395752 122 91 73
-2.8069281578063965 -1.1005072593688965 5.497866630554199 39 42 28
-0.3916473686695099 -0.5711022019386292 5.653629302978516 173 143 117
-2.2266619205474854 -0.9190746545791626 5.5395894050598145 195 160 130
-2.37187123298645 -1.0196540355682373 5.547510623931885 111 80 59
-1.6026309728622437 -0.9089667797088623 5.629232883453369 95 62 49
-2.2558352947235107 -0.7907509207725525 5.506500720977783 122 93 77
-0.504553496837616 -0.9327859282493591 5.77056884765625 189 163 144
-2.435553789138794 -0.05689687281847 5.287112236022949 214 184 158
-1.1790627241134644 -0.9004181623458862 5.692375659942627 117 79 55
-1.0585238933563232 -0.8283141851425171 5.684787750244141 106 83 70
-1.9799432754516602 -0.04778660088777542 5.353365421295166 120 93 81
-1.1595264673233032 -0.6857917308807373 5.630589008331299 206 170 144
-0.7272211313247681 -1.9983017444610596 5.209348201751709 180 197 172
-1.5136109590530396 -0.7312275767326355 5.595529556274414 138 94 69
-0.7475596070289612 -1.1593925952911377 5.815316200256348 151 122 108
-1.2146308422088623 -0.39195486903190613 5.538090229034424 168 134 114
-2.824669361114502 -1.1899347305297852 5.389326095581055 37 50 40
-2.394728899002075 -1.0324103832244873 5.54940128326416 108 74 55
-0.6758422255516052 -1.9878634214401245 5.229142189025879 18 34 10
-2.261578321456909 -1.824116587638855 4.875960350036621 117 25 31
-1.8834272623062134 -0.035531628876924515 5.356585502624512 195 163 139
-2.953218936920166 -1.796149492263794 4.693857669830322 173 223 219
-2.8301947116851807 -1.1635996103286743 5.428668975830078 93 65 51
-0.9628618955612183 -0.07273998111486435 5.493230819702148 199 167 146
-0.30209916830062866 -0.795604944229126 5.729542255401611 136 109 95
-0.9888024926185608 -1.9494129419326782 5.162773132324219 22 43 29
-1.3248225450515747 -0.6665261387825012 5.615643501281738 192 151 121
-1.8090707063674927 -0.2611856460571289 5.430136680603027 147 102 76
-0.9473044872283936 -1.9403314590454102 5.190016269683838 209 229 217
-2.99485182762146 -1.7836005687713623 4.692089080810547 180 215 231
-1.634973168373108 -0.7323612570762634 5.588877201080322 133 98 80
-1.2408169507980347 -0.8453969359397888 5.661906719207764 191 151 125
-1.446866750717163 -3.228870391845703 6.164989948272705 102 139 157
-0.49050915241241455 -0.2755057215690613 5.597218990325928 105 76 62
-2.066357374191284 -3.0521738529205322 6.060225486755371 101 128 147
-1.6739827394485474 -0.9774900078773499 5.632589817047119 168 127 99
-1.046687364578247 -0.4558546841144562 5.577907562255859 174 146 124
-2.1495361328125 -1.8245893716812134 4.916622638702393 119 25 28
-1.9265373945236206 -0.6539145112037659 5.517693519592285 141 113 91
-1.4544517993927002 -0.4309227168560028 5.52607536315918 166 132 116
-2.314436435699463 -1.0678666830062866 5.574068069458008 104 69 49
-1.540189266204834 -0.5946524739265442 5.556128978729248 88 63 51
-1.2392308712005615 -0.21861200034618378 5.490448951721191 154 120 104
-1.783396601676941 -1.0109000205993652 5.635513782501221 165 123 99
-0.5215148329734802 -0.23367708921432495 5.580419540405273 155 120 100
-2.697619915008545 -0.443761944770813 5.352773189544678 192 158 133
-2.6196353435516357 -0.40172162652015686 5.351337909698486 128 99 83
-1.3248225450515747 -0.6665261387825012 5.615643501281738 192 151 121
-3.463846206665039 -0.4101817309856415 5.235984802246094 145 112 93
-0.7232475876808167 -1.9571456909179688 5.2418718338012695 15 36 20
-0.6668276786804199 -0.23393842577934265 5.572434902191162 66 49 41
-2.784257411956787 -1.7200028896331787 4.815723419189453 11 89 17
-1.576037883758545 -0.9244605302810669 5.634753227233887 177 135 110
-2.1040563583374023 -0.3665800988674164 5.4191460609436035 96 68 56
-2.1294500827789307 -1.822312355041504 4.923351287841797 85 4 6
-1.5058804750442505 -0.9500009417533875 5.653262615203857 118 83 64
-2.226284980773926 -0.14696453511714935 5.339160919189453 162 126 107
-2.2541892528533936 -0.9652794599533081 5.5417351722717285 136 101 81
-2.2572991847991943 -0.9953503608703613 5.558854103088379 187 146 124
-0.6890149712562561 -1.1357221603393555 5.796664714813232 151 118 99
-2.1749513149261475 -0.22044429183006287 5.357255935668945 164 127 100
-0.6581279039382935 -1.9854028224945068 5.233949661254883 9 28 9
-2.2280514240264893 -1.7844892740249634 4.925754070281982 113 17 23
-1.7136589288711548 -0.9676498770713806 5.6282572746276855 111 76 55
-1.3061996698379517 -0.22455865144729614 5.493023872375488 139 106 87
-2.059035539627075 -1.1605215072631836 5.596715450286865 114 137 83
-2.696242094039917 -0.4356291592121124 5.34952449798584 142 112 88
-0.6890361309051514 -1.9788126945495605 5.235988140106201 17 37 23
-2.846186637878418 -1.1659942865371704 5.401200771331787 206 130 103
-0.483927845954895 -0.0791923999786377 5.553524017333984 80 51 40
-2.9870705604553223 -1.7902055978775024 4.690949440002441 1 150 73
-1.4573925733566284 -0.7053224444389343 5.598440647125244 127 84 67
-0.9088737368583679 -1.9698139429092407 5.172118186950684 186 201 179
-0.9158143997192383 -2.025390625 5.12063455581665 181 182 179
-2.1478991508483887 -1.8217931985855103 4.918223857879639 102 11 17
-0.8876610994338989 -1.915006160736084 5.2166852951049805 182 193 168
-0.6969082951545715 -0.2931791841983795 5.56415319442749 165 135 111
-0.8687326908111572 -0.46910130977630615 5.632349014282227 171 134 108
-2.2004644870758057 -1.8050724267959595 4.919865131378174 164 201 225
-1.2084208726882935 -0.8268842697143555 5.658865928649902 182 146 120
-0.37062931060791016 -0.43924805521965027 5.661257266998291 72 50 39
-0.8492056727409363 -1.0190175771713257 5.750588893890381 106 89 78
-1.4544517993927002 -0.4309227168560028 5.52607536315918 166 132 116
-3.124898910522461 -0.27070364356040955 5.23520040512085 154 122 102
-0.7295618057250977 -1.9613003730773926 5.234302997589111 180 195 161
-2.8791286945343018 -1.7763581275939941 4.726550102233887 180 221 231
-2.0907492637634277 -0.8013491034507751 5.532344818115234 205 172 153
-2.696242094039917 -0.4356291592121124 5.34952449798584 142 112 88
-2.2578160762786865 -1.814133644104004 4.890740871429443 102 21 23
-3.085826873779297 -0.440634548664093 5.294876575469971 110 78 59
-1.7866424322128296 -1.8107510805130005 5.051096439361572 168 31 39
-1.616563081741333 -0.8473488688468933 5.6176252365112305 138 100 77
-1.2385797500610352 -0.49296265840530396 5.5641608238220215 73 46 29
-0.5823102593421936 -0.18435998260974884 5.576081275939941 148 118 93
-1.8995952606201172 -0.2574254870414734 5.418972969055176 91 64 57
-0.5538823008537292 -0.21281474828720093 5.580641746520996 162 128 103
-1.3267687559127808 -0.3584490120410919 5.522329807281494 75 47 35
-2.704402446746826 -1.8037939071655273 4.747210502624512 172 220 230
-1.2804994583129883 -0.015771327540278435 5.43635892868042 189 151 130
-2.048335552215576 -1.170235276222229 5.587606430053711 63 54 48
-2.6801040172576904 -1.817406177520752 4.74486780166626 175 221 234
-0.7327279448509216 -1.9525216817855835 5.238314151763916 1 13 1
-0.6763871312141418 -1.9749823808670044 5.240862846374512 19 29 14
-2.6150500774383545 -0.33176109194755554 5.337695121765137 125 92 73
-0.7886613011360168 -0.7348962426185608 5.722445011138916 168 138 117
-0.9873286485671997 -0.6490050554275513 5.640289783477783 208 180 159
-1.2537765502929688 -0.8509097695350647 5.653839111328125 189 153 125
-1.9193155765533447 -0.07349061965942383 5.363400459289551 70 46 33
-1.373910665512085 -0.440926194190979 5.536960601806641 130 110 101
-2.299265146255493 -1.7855957746505737 4.899920463562012 199 202 223
-1.1147860288619995 -0.7637341618537903 5.650205612182617 180 152 130
-0.6462544202804565 -1.9902693033218384 5.239810466766357 23 37 23
-0.6256549954414368 -0.5708985328674316 5.6558942794799805 71 49 35
-1.148395299911499 -0.8929044604301453 5.675527572631836 196 161 139
-1.347931146621704 -3.096571445465088 6.15095853805542 16 30 41
-1.463767647743225 -0.33562764525413513 5.49803352355957 73 41 30
-0.8983404040336609 -0.3844051957130432 5.60051155090332 176 145 124
-1.8952889442443848 -1.1344168186187744 5.6472978591918945 135 100 78
-0.21549613773822784 -0.8326805233955383 5.765303611755371 162 130 109
-2.9364898204803467 -0.3953650891780853 5.307564735412598 197 161 137
-0.483927845954895 -0.0791923999786377 5.553524017333984 80 51 40
-2.728978395462036 -0.3500559329986572 5.33005952835083 183 149 122
-1.9146219491958618 -0.05623377859592438 5.35203742980957 176 138 114
-1.1136068105697632 -0.8901962637901306 5.690761566162109 183 147 123
-0.7393428683280945 -1.966566562652588 5.225806713104248 191 210 169
-2.128767967224121 -1.828590750694275 4.920827865600586 184 200 226
-0.8036600947380066 -0.9741661548614502 5.739727020263672 198 171 152
-2.7032344341278076 -0.2313814014196396 5.293432712554932 189 155 130
-2.0861337184906006 -0.2760630249977112 5.394021034240723 195 156 129
-1.568333387374878 -0.4958641231060028 5.52796745300293 176 144 123
-0.8006885051727295 -2.0073599815368652 5.1778764724731445 23 46 28
-2.3044092655181885 -1.8022916316986084 4.882850170135498 234 222 238
-1.01779305934906 -1.9102823734283447 5.181299686431885 5 31 18
-3.604696273803711 -0.23348107933998108 5.175784587860107 119 87 68
-0.31874531507492065 -0.14389830827713013 5.5876874923706055 72 53 41
-1.4636591672897339 -0.32879921793937683 5.487171649932861 187 151 130
-0.9221110939979553 -1.9788930416107178 5.167170524597168 216 230 206
-2.1377463340759277 -0.8295772671699524 5.52869987487793 190 155 135
-2.3371970653533936 -1.0006334781646729 5.5561981201171875 131 99 78
-0.8217248320579529 -0.7512267231941223 5.720104694366455 181 148 129
-0.6677684187889099 -0.21593506634235382 5.567739009857178 159 127 104
-0.8848086595535278 -0.7206410765647888 5.660959243774414 195 167 145
-3.566345453262329 -0.25701892375946045 5.18721342086792 192 165 139
-0.5218995809555054 -3.8461015224456787 7.70098876953125 36 57 64
-2.295452833175659 -0.21835191547870636 5.3504157066345215 98 66 47
-3.011831521987915 -1.7753859758377075 4.690745830535889 166 217 212
-2.3726749420166016 -1.7757267951965332 4.88138484954834 119 30 35
-0.6442744731903076 -1.9981926679611206 5.23544979095459 29 46 29
-0.3954940438270569 -1.0704833269119263 5.798981666564941 150 114 98
-0.9369672536849976 -1.9560142755508423 5.176599025726318 177 203 165
-2.131422281265259 -0.8158791065216064 5.530322551727295 98 76 63
-1.8594480752944946 -1.1472768783569336 5.641627311706543 41 35 32
-0.7180823683738708 -1.9787814617156982 5.224607944488525 3 16 2
-2.3179025650024414 -1.8065533638000488 4.8729376792907715 103 18 17
-2.224262237548828 -1.7940043210983276 4.919485569000244 63 7 11
-0.6911571621894836 -2.0458927154541016 5.185447692871094 182 196 169
-0.6366084814071655 -1.9913545846939087 5.239126682281494 184 195 171
-1.4317407608032227 -0.27429401874542236 5.488717079162598 170 138 117
-0.9369672536849976 -1.9560142755508423 5.176599025726318 177 203 165
-0.7160400152206421 -0.1408054232597351 5.54191255569458 66 43 37
-0.6789173483848572 -0.7923936247825623 5.709277629852295 184 152 131
-0.997073233127594 -1.9243969917297363 5.178247928619385 189 205 188
-2.4969263076782227 -0.34693780541419983 5.3460211753845215 133 100 81
-0.7890024185180664 -0.8733165264129639 5.710878372192383 126 102 92
-0.75713050365448 -0.18120141327381134 5.529177188873291 146 111 92
-0.7679447531700134 -1.9550542831420898 5.226973533630371 190 205 177
-0.5813315510749817 -0.9911201596260071 5.780002117156982 155 124 106
-2.424187660217285 -0.22772003710269928 5.333887577056885 198 166 142
-0.9216916561126709 -0.023978181183338165 5.4829792976379395 50 24 10
-1.9454965591430664 -0.2075377255678177 5.395933628082275 96 64 41
-3.055192708969116 -0.6218923330307007 5.344571590423584 122 91 71
-1.9421367645263672 -0.13189586997032166 5.375234127044678 161 126 104
-1.6030092239379883 -0.07957066595554352 5.410697937011719 62 41 31
-0.38673117756843567 -0.8726856708526611 5.762348651885986 124 94 83
-1.7456830739974976 -0.7311999201774597 5.565932750701904 75 59 50
-1.4402353763580322 -0.05637152120471001 5.42617130279541 130 92 71
-2.290581226348877 -1.7855744361877441 4.9043779373168945 105 21 28
-2.951871871948242 -0.9363686442375183 5.437444686889648 165 123 99
-0.897244393825531 -1.9447251558303833 5.190611362457275 6 32 23
-0.8697062134742737 -0.11422117799520493 5.523660182952881 167 135 114
-0.8256705403327942 -1.9992828369140625 5.175501823425293 6 28 15
-2.47353196144104 -0.08436732739210129 5.288041591644287 157 121 99
-0.7583354115486145 -0.9775639772415161 5.730506896972656 156 124 110
-2.443396806716919 -1.110901117324829 5.568074703216553 157 117 91
-0.8176746964454651 -1.934633493423462 5.223585605621338 1 18 3
-2.323823928833008 -0.2444366216659546 5.360961437225342 158 125 106
-0.8705760836601257 -0.39663827419281006 5.609775543212891 167 131 105
-0.8085775971412659 -0.48566973209381104 5.625847339630127 63 44 38
-2.4281582832336426 -1.761291265487671 4.875775337219238 119 23 27
-2.140871286392212 -1.8260703086853027 4.915909290313721 214 199 219
-0.8036600947380066 -0.9741661548614502 5.739727020263672 198 171 152
-2.289902925491333 -1.8333916664123535 4.859829902648926 162 36 38
-1.4516918659210205 -0.9623084664344788 5.658563613891602 111 82 68
-1.6856637001037598 -0.2479744702577591 5.455275535583496 161 124 105
-2.694011926651001 -1.814658522605896 4.739299774169922 4 138 64
-0.997933566570282 -1.9606578350067139 5.1510491371154785 185 197 183
-2.2004644870758057 -1.8050724267959595 4.919865131378174 164 201 225
-1.888264536857605 -0.03166602551937103 5.358433723449707 80 51 34
-0.7511025071144104 -0.3369743824005127 5.585909366607666 164 127 105
-0.6575077176094055 -0.6833748817443848 5.692770481109619 177 145 124
-0.997073233127594 -1.9243969917297363 5.178247928619385 189 205 188
-0.7110360860824585 -0.12912723422050476 5.505710601806641 131 102 89
-1.1743500232696533 -0.9064599275588989 5.6877899169921875 180 138 113
-1.810886025428772 -0.3482101559638977 5.4558491706848145 194 154 128
-1.6060774326324463 -0.049801304936409 5.407657146453857 95 59 43
-2.951871871948242 -0.9363686442375183 5.437444686889648 165 123 99
-1.1459664106369019 -0.36239781975746155 5.5392937660217285 81 58 49
-2.2681190967559814 -0.25757983326911926 5.35767126083374 184 147 121
-1.2251513004302979 -0.25087544322013855 5.513619422912598 85 58 45
-1.7680059671401978 -0.21554243564605713 5.431128025054932 133 92 70
-1.4091664552688599 -0.26582303643226624 5.478960990905762 164 129 109
-2.0994515419006348 -0.040216851979494095 5.325931072235107 165 130 108
-0.7359620928764343 -2.009221076965332 5.191370487213135 186 197 181
-3.5161709785461426 -0.7125741243362427 5.302433490753174 98 65 46
-3.0925424098968506 -0.17033906280994415 5.224056720733643 172 136 112
-2.377260446548462 -1.7784878015518188 4.884921073913574 75 6 9
-2.091298818588257 -0.20468033850193024 5.381868362426758 84 56 43
-2.312119960784912 -0.2842852473258972 5.363428592681885 197 162 134
-2.462975263595581 -0.21952834725379944 5.325022220611572 134 98 76
-0.7373707294464111 -1.9964817762374878 5.207411289215088 14 38 31
-1.8110830783843994 -0.5528163909912109 5.505899906158447 188 159 141
-2.8426353931427 -0.5647546648979187 5.361039161682129 126 91 71
-2.1585166454315186 -1.8235384225845337 4.911036014556885 65 1 1
-2.1252424716949463 -0.3719140589237213 5.408351421356201 133 99 87
-2.2823739051818848 -1.820452332496643 4.878498554229736 87 25 32
-2.6284220218658447 -0.4672051668167114 5.368063449859619 194 167 138
-2.9870705604553223 -1.7902055978775024 4.690949440002441 1 150 73
-2.9151651859283447 -1.7701514959335327 4.73056697845459 173 223 222
-2.587944746017456 -0.43077999353408813 5.358927249908447 187 153 125
-1.7248214483261108 -0.9613341093063354 5.624207973480225 193 149 122
-1.164048671722412 -0.5697038769721985 5.594799518585205 98 69 60
-2.1471424102783203 -0.711737334728241 5.5007781982421875 112 89 79
-3.2812247276306152 -0.44056612253189087 5.258525371551514 111 82 68
-1.7391798496246338 -1.1706206798553467 5.6408820152282715 103 119 82
-0.6288446187973022 -0.5776602625846863 5.653175354003906 168 139 121
-0.8041154742240906 -1.943171501159668 5.225634574890137 173 189 154
-3.52013897895813 -0.4077329635620117 5.229060173034668 213 191 177
-0.652285635471344 -1.9921875 5.233134746551514 189 204 174
-0.5122193694114685 -0.16143140196800232 5.502275466918945 59 46 40
-2.7482287883758545 -0.24067294597625732 5.290579795837402 93 70 54
-0.5824110507965088 -0.6525149941444397 5.679478645324707 186 155 134
-1.5255318880081177 -0.23153585195541382 5.46605110168457 127 86 64
-1.3964275121688843 -0.46520110964775085 5.5519208908081055 156 123 106
-0.7284459471702576 -0.1468522697687149 5.544924259185791 34 14 6
-1.2107250690460205 -0.09818774461746216 5.468440055847168 73 38 24
-1.6504439115524292 -0.43315160274505615 5.4952287673950195 167 135 114
-0.13503189384937286 -1.0136538743972778 5.8110880851745605 188 158 134
-0.7831783890724182 -1.9905234575271606 5.196836471557617 22 47 37
-2.215165138244629 -1.801870346069336 4.917476177215576 88 2 3
-1.2865737676620483 -3.0367021560668945 6.146429538726807 95 131 150
-3.311335802078247 -0.33115142583847046 5.233973979949951 188 156 145
-0.6091678142547607 -0.7546164393424988 5.7219367027282715 138 109 93
-2.2925403118133545 -0.2847253382205963 5.370944023132324 191 154 125
-0.8006885051727295 -2.0073599815368652 5.1778764724731445 23 46 28
-2.8308157920837402 -0.14673970639705658 5.248599052429199 111 93 86
-0.7131613492965698 -1.9628791809082031 5.235785007476807 182 196 171
-1.1181107759475708 -0.08327231556177139 5.4743242263793945 123 85 64
-2.1585166454315186 -1.8235384225845337 4.911036014556885 65 1 1
-1.482661247253418 -1.2106292247772217 5.465227127075195 37 43 62
-2.474910259246826 -1.166068434715271 5.494594097137451 98 42 13
-0.9080024361610413 -0.23422956466674805 5.545169353485107 83 57 44
-2.3433728218078613 -1.1626255512237549 5.533735752105713 154 93 65
-3.427745819091797 -0.13042744994163513 5.175679683685303 134 103 87
-1.924035668373108 -0.049049437046051025 5.3643646240234375 139 102 76
-1.8480991125106812 -0.2769474387168884 5.430108070373535 204 167 141
-2.5537760257720947 -0.38102465867996216 5.355753421783447 100 73 56
-2.119584798812866 -0.8089522123336792 5.534264087677002 105 83 70
-3.5234827995300293 -0.1615646332502365 5.171844959259033 202 170 149
-1.1759790182113647 -0.2306210845708847 5.511042594909668 188 157 139
-1.8166661262512207 -0.8760728240013123 5.593128204345703 107 71 49
-1.0349394083023071 -1.9183710813522339 5.172358512878418 11 29 13
-1.9760719537734985 -1.172789216041565 5.603102207183838 130 145 108
-2.0055675506591797 -0.9636399745941162 5.586037635803223 149 104 77
-3.734523057937622 -0.3534516394138336 5.182720184326172 81 53 38
-0.7291749119758606 -0.285593718290329 5.560050964355469 117 82 63
-2.433847427368164 -0.07552306354045868 5.299457550048828 109 77 64
-1.1100729703903198 -0.7152416110038757 5.649111747741699 187 155 134
-3.6789777278900146 -0.7800512313842773 5.301572322845459 139 99 74
-1.3010170459747314 -0.8281545042991638 5.645567893981934 146 110 87
-1.5136381387710571 -0.8946987390518188 5.633257865905762 187 145 120
-2.1198570728302 -0.3864648640155792 5.424493312835693 104 76 62
-1.1078412532806396 -0.8517806529998779 5.676915645599365 121 94 75
-1.2085729837417603 -0.8531201481819153 5.66455078125 118 81 60
-2.8067080974578857 -0.30299800634384155 5.298895359039307 164 133 114
-1.9454965591430664 -0.2075377255678177 5.395933628082275 96 64 41
-1.006169080734253 -1.937728762626648 5.162961483001709 12 40 29
-0.650641143321991 -2.0188980102539062 5.212977409362793 28 51 35
-0.6785585284233093 -0.8341683149337769 5.748323917388916 122 93 79
-2.2938947677612305 -1.8235434293746948 4.872611045837402 170 210 239
-1.289416790008545 -0.16984876990318298 5.4759135246276855 173 138 116
-2.737999200820923 -0.5240342020988464 5.361783981323242 169 140 116
-1.4114536046981812 -3.169161558151245 6.154897212982178 44 70 87
-2.789207935333252 -1.7602694034576416 4.772727966308594 94 232 167
-1.0200861692428589 -1.934325933456421 5.164278984069824 184 195 181
-1.8825740814208984 -1.1723757982254028 5.609591007232666 58 50 47
-1.827606201171875 -3.0864665508270264 6.081854820251465 36 67 86
-0.725016176700592 -0.6384081244468689 5.662090301513672 125 90 74
-0.4695761799812317 -0.7859386801719666 5.730296611785889 178 150 129
-1.53929603099823 -0.24667473137378693 5.462284088134766 184 143 123
-0.7105314135551453 -0.5914555191993713 5.671385288238525 157 130 107
-2.818392753601074 -1.2331407070159912 5.334044933319092 220 189 169
-0.7819012403488159 -2.01473331451416 5.176942348480225 19 39 26
-0.7237607836723328 -0.13575506210327148 5.5311174392700195 145 115 98
-1.6970754861831665 -0.5565657615661621 5.514754772186279 101 79 66
-1.6521648168563843 -0.04110011085867882 5.396771430969238 171 130 108
-2.8236799240112305 -1.8099709749221802 4.718760967254639 165 216 212
-0.7359620928764343 -2.009221076965332 5.191370487213135 186 197 181
-2.2890427112579346 -1.830204725265503 4.869415760040283 197 198 225
-1.924035668373108 -0.049049437046051025 5.3643646240234375 139 102 76
-1.4262139797210693 -0.046739883720874786 5.4265666007995605 83 40 21
-1.6906853914260864 -0.16126352548599243 5.406916618347168 166 132 107
-0.37410837411880493 -0.6640779376029968 5.68485689163208 208 177 156
-1.9766303300857544 -0.8722561597824097 5.56436014175415 200 164 142
-2.192466974258423 -0.049634091556072235 5.3180694580078125 103 72 57
-0.6848556399345398 -2.041539192199707 5.187305450439453 14 33 18
-0.4128609895706177 -0.2749365270137787 5.623772621154785 105 75 65
-2.1982994079589844 -1.795721173286438 4.928451061248779 184 199 224
-3.647614002227783 -0.3272711932659149 5.189700126647949 220 209 196
-3.189276695251465 -0.11442197859287262 5.202750205993652 213 194 175
-3.062893867492676 -0.25646132230758667 5.249138355255127 132 95 79
-2.3088173866271973 -1.7992075681686401 4.887488842010498 54 5 18
-2.195906639099121 -1.8239601850509644 4.895519256591797 170 212 237
-1.846632957458496 -0.5671738982200623 5.507236003875732 193 162 144
-1.2339292764663696 -0.10890160501003265 5.481301784515381 102 65 44
-2.251706123352051 -1.767479658126831 4.931405067443848 98 4 12
-0.9177168607711792 -0.043113213032484055 5.49053430557251 49 26 15
-3.170260190963745 -0.14496463537216187 5.207679271697998 183 151 130
-2.320204734802246 -0.2351803183555603 5.343966484069824 137 101 84
-0.6713375449180603 -0.2276742309331894 5.571873664855957 160 132 112
-1.8107985258102417 -2.9858059883117676 6.05933141708374 20 34 47
-1.01616632938385 -1.941473126411438 5.162360191345215 186 200 189
-1.5322175025939941 -0.3564729392528534 5.4915032386779785 70 49 40
-0.855184018611908 -0.7409217953681946 5.721985816955566 159 130 114
-2.11262845993042 -0.34553849697113037 5.4069719314575195 159 122 104
-3.170260190963745 -0.14496463537216187 5.207679271697998 183 151 130
-1.4775311946868896 -0.3794546127319336 5.511021137237549 128 96 81
-0.4957239627838135 -1.1540544033050537 5.803917407989502 136 101 82
-1.4424344301223755 -0.4595610201358795 5.531206130981445 92 68 57
-2.145916700363159 -0.8474922180175781 5.535991668701172 141 104 85
-0.6773557066917419 -1.980880618095398 5.234695911407471 26 43 23
-3.4118854999542236 -0.09238261729478836 5.175117492675781 202 174 153
-0.8033011555671692 -1.9865797758102417 5.195943832397461 16 39 25
-0.7373707294464111 -1.9964817762374878 5.207411289215088 14 38 31
-2.436861276626587 -0.4317076802253723 5.384353160858154 124 92 77
-2.7214772701263428 -0.28682586550712585 5.307229518890381 182 146 124
-0.3666016757488251 -0.8935112953186035 5.765970230102539 197 174 153
-1.459404706954956 -0.439179390668869 5.523496150970459 117 88 72
-1.0391261577606201 -3.2005367279052734 6.212610721588135 122 148 163
-1.1460447311401367 -0.4085313677787781 5.562121868133545 124 91 74
-1.8508260250091553 -1.16849946975708 5.617010593414307 52 55 44
-2.2572991847991943 -0.9953503608703613 5.558854103088379 187 146 124
-0.4594614803791046 -0.5240747928619385 5.674952983856201 186 155 137
-1.6810168027877808 -0.5037763714790344 5.5092949867248535 128 101 82
-0.8136212229728699 -1.9928181171417236 5.181084632873535 2 12 3
-2.422553777694702 -0.31960123777389526 5.362023830413818 185 150 128
-2.173240900039673 -0.418937623500824 5.423565864562988 108 77 59
-2.0884270668029785 -0.2639484405517578 5.3907670974731445 201 165 146
-2.169203042984009 -0.30558696389198303 5.395440101623535 130 92 73
-2.18776798248291 -0.48080679774284363 5.4375834465026855 166 131 103
-1.1989666223526 -0.7661677598953247 5.639033794403076 173 137 115
-2.3044092655181885 -1.8022916316986084 4.882850170135498 234 222 238
-1.821331262588501 -0.24934989213943481 5.428661346435547 115 81 54
-0.9354681372642517 -0.052952948957681656 5.493988990783691 80 55 42
-2.580594062805176 -0.6190345287322998 5.4091997146606445 119 90 76
-2.1672587394714355 -1.8356828689575195 4.898952007293701 1 138 63
-3.214014768600464 -0.1306297779083252 5.199585437774658 112 89 73
-2.410449266433716 -1.1599395275115967 5.517402648925781 163 90 56
-2.11262845993042 -0.34553849697113037 5.4069719314575195 159 122 104
-2.5374085903167725 -0.29017338156700134 5.3338236808776855 124 95 79
-1.6955710649490356 -0.352272093296051 5.468757152557373 191 151 126
-0.2645057737827301 -1.0748440027236938 5.810403347015381 120 85 65
-0.21468676626682281 -1.0379563570022583 5.820484638214111 200 168 145
-0.3499282896518707 -0.5519792437553406 5.703620433807373 166 130 110
-0.6763871312141418 -1.9749823808670044 5.240862846374512 19 29 14
-1.708979606628418 -0.25782620906829834 5.443232536315918 178 138 113
-1.9434863328933716 -0.028912436217069626 5.355959892272949 121 86 67
-2.729592800140381 -3.128892421722412 6.03053092956543 84 58 41
-1.4383659362792969 -0.23671939969062805 5.478967666625977 194 152 130
-1.4774051904678345 -0.14067688584327698 5.435170650482178 81 51 33
-2.5176804065704346 -1.2043794393539429 5.729150772094727 162 96 63
-2.395935535430908 -0.26022860407829285 5.345249652862549 199 161 142
-1.8039311170578003 -0.2755022644996643 5.4351348876953125 197 163 135
-0.972832977771759 -1.8966305255889893 5.212752342224121 175 192 171
-0.9046027660369873 -1.9602725505828857 5.174463748931885 11 24 7
-2.0419716835021973 -1.1666326522827148 5.591553688049316 135 147 106
-0.31909722089767456 -0.6204243898391724 5.698500633239746 180 148 125
-0.6962783932685852 -0.6411389112472534 5.666193962097168 119 89 79
-1.1898219585418701 -0.3094067871570587 5.522411346435547 179 151 128
-1.4300165176391602 -3.6405162811279297 7.2909064292907715 17 30 39
-2.7591335773468018 -0.4631079137325287 5.349172115325928 149 117 96
-0.5322812795639038 -0.9530861377716064 5.776854515075684 146 117 99
-1.772923469543457 -0.20063570141792297 5.427269458770752 81 53 40
-1.540189266204834 -0.5946524739265442 5.556128978729248 88 63 51
-0.7689402103424072 -2.016192674636841 5.181933879852295 184 195 178
-3.528646230697632 -0.15825635194778442 5.164941787719727 238 228 215
-1.422061800956726 -3.0488898754119873 6.1251044273376465 41 67 85
-2.3185908794403076 -0.25366994738578796 5.361032485961914 96 67 50
-2.926023483276367 -0.1798977106809616 5.247935771942139 179 146 127
-1.0930393934249878 -0.2172769159078598 5.5140156745910645 191 159 136
-2.291210174560547 -0.16136769950389862 5.337177276611328 184 149 127
-2.565338134765625 -1.1863434314727783 5.442409992218018 40 24 23
-2.3088173866271973 -1.7992075681686401 4.887488842010498 54 5 18
-1.5670781135559082 -3.181215524673462 6.145512104034424 88 118 142
-1.32119882106781 -0.022999385371804237 5.426965236663818 174 136 113
-1.631280779838562 -1.1924678087234497 5.63974142074585 96 108 68
-0.8136704564094543 -2.000882863998413 5.177743434906006 181 195 169
-1.78933584690094 -0.13623046875 5.395910739898682 118 78 55
-0.9325560927391052 -0.1392579972743988 5.5133585929870605 142 106 84
-1.4102654457092285 -0.13531072437763214 5.4593658447265625 155 114 94
-1.7584666013717651 -0.32523322105407715 5.455619812011719 115 77 56
-0.9307845830917358 -1.946357250213623 5.183557033538818 165 189 177
-3.1007351875305176 -0.05352608114480972 5.193838119506836 203 176 156
-1.9359792470932007 -0.6105979084968567 5.500391006469727 111 84 73
-2.3160789012908936 -0.2602475881576538 5.359158515930176 192 158 133
-1.947683334350586 -0.055158983916044235 5.3541579246521 192 158 134
-3.170323371887207 -0.06963283568620682 5.191319465637207 100 82 76
-0.6735402941703796 -0.918941855430603 5.736749172210693 197 166 146
-1.971812129020691 -0.20881398022174835 5.395900726318359 156 121 99
-3.028482437133789 -0.43490543961524963 5.302074432373047 190 159 130
-2.1878654956817627 -0.13886719942092896 5.347875595092773 180 144 121
-1.9434863328933716 -0.028912436217069626 5.355959892272949 121 86 67
-0.4085150361061096 -2.1408908367156982 4.751047134399414 162 194 207
-2.8421669006347656 -0.29907986521720886 5.294845104217529 96 64 43
-1.7108070850372314 -0.6171880960464478 5.53732442855835 101 83 69
-1.5063329935073853 -0.10426817089319229 5.43459939956665 189 149 124
-1.9029455184936523 -2.9659948348999023 6.043403148651123 121 156 170
-2.3284318447113037 -0.1807609349489212 5.338082790374756 164 128 106
-3.4934499263763428 -0.6063864827156067 5.274499416351318 122 85 70
-0.943481981754303 -3.059006929397583 6.19354248046875 102 129 143
-2.3740339279174805 -0.14184434711933136 5.319571495056152 183 147 123
-1.6430846452713013 -0.5225626230239868 5.522966384887695 128 100 79
-0.5107092261314392 -0.03520086407661438 5.456568717956543 127 102 82
-2.385784149169922 -0.2164497822523117 5.340045928955078 129 91 68
-2.1145787239074707 -0.2209489643573761 5.375815391540527 74 44 31
-2.7112491130828857 -0.19832168519496918 5.283847808837891 162 129 110
-1.8039311170578003 -0.2755022644996643 5.4351348876953125 197 163 135
-1.7930773496627808 -0.875067949295044 5.590304374694824 163 125 106
-0.7043513059616089 -2.017113208770752 5.199896335601807 187 199 183
-0.32247719168663025 -1.1822866201400757 5.843387603759766 168 132 111
-2.2678914070129395 -0.12705519795417786 5.332616329193115 162 128 103
-2.474910259246826 -1.166068434715271 5.494594097137451 98 42 13
-2.4330332279205322 -1.7210819721221924 4.9301629066467285 185 194 226
-1.7991160154342651 -0.2809406816959381 5.434445858001709 168 128 102
-3.1350364685058594 -0.27719730138778687 5.237966060638428 138 110 95
-0.7180823683738708 -1.9787814617156982 5.224607944488525 3 16 2
-1.8825740814208984 -1.1723757982254028 5.609591007232666 58 50 47
-2.1763384342193604 -1.8037022352218628 4.930274963378906 170 200 229
-1.2653089761734009 -0.35527804493904114 5.51902437210083 192 164 143
-2.187800884246826 -0.40291091799736023 5.416845321655273 84 56 45
-1.9339083433151245 -0.20965683460235596 5.398388862609863 182 141 119
-1.7951087951660156 -0.3401504158973694 5.450821399688721 189 149 123
-2.675379991531372 -0.42947185039520264 5.348781108856201 184 153 125
-2.808743476867676 -0.5755010843276978 5.370731353759766 143 112 92
-1.7668324708938599 -0.6053303480148315 5.518266677856445 194 165 151
-2.2928004264831543 -0.2686706483364105 5.3632988929748535 196 161 133
-2.216329336166382 -1.7824245691299438 4.93606424331665 88 12 14
-1.3957853317260742 -0.07544074207544327 5.435508728027344 190 153 127
-2.3740339279174805 -0.14184434711933136 5.319571495056152 183 147 123
-1.9603887796401978 -1.2418954372406006 5.537312030792236 167 110 50
-0.7626762390136719 -2.0048046112060547 5.18789529800415 170 185 169
-1.631280779838562 -1.1924678087234497 5.63974142074585 96 108 68
-1.973606824874878 -0.6141884922981262 5.506690502166748 136 109 98
-1.705277681350708 -0.20726247131824493 5.421977996826172 184 147 121
-1.530463695526123 -0.005813285242766142 5.410756587982178 153 115 94
-2.561088800430298 -0.5202290415763855 5.391605377197266 111 80 60
-3.4594991207122803 -0.29724591970443726 5.212932109832764 146 118 94
-3.0730185508728027 -0.052150312811136246 5.199003219604492 208 187 166
-2.126129388809204 -0.12473022937774658 5.348288536071777 189 153 127
-3.4813690185546875 -0.1148904487490654 5.161019325256348 224 213 202
-3.0976762771606445 -0.1792423576116562 5.227437973022461 122 95 76
-2.395216703414917 -1.1708096265792847 5.512505054473877 81 41 17
-1.825008511543274 -0.3607213497161865 5.456117630004883 195 160 138
-2.6610660552978516 -0.09624680131673813 5.26750373840332 118 86 75
-2.796267509460449 -0.07167375087738037 5.243117809295654 186 154 136
-3.2486019134521484 -0.18555407226085663 5.213973522186279 148 116 101
-2.7975525856018066 -0.3067096769809723 5.302092552185059 201 165 139
-3.307546377182007 -0.15964026749134064 5.1970953941345215 130 97 78
-3.0044796466827393 -1.7803903818130493 4.692764759063721 8 149 80
-2.875990152359009 -0.09986205399036407 5.235341548919678 216 189 167
-0.804206371307373 -1.9379855394363403 5.232487201690674 184 202 168
-0.7043513059616089 -2.017113208770752 5.199896335601807 187 199 183
-2.5962932109832764 -0.4889541268348694 5.379950523376465 185 149 125
-1.7705849409103394 -0.08263114839792252 5.3868088722229 110 72 53
-1.9382904767990112 -0.694169819355011 5.52590274810791 167 139 125
-2.3186228275299072 -0.04550822079181671 5.300981044769287 94 62 43
-1.2942957878112793 -1.3379967212677002 5.613384246826172 143 69 37
-3.3133716583251953 -0.3534613847732544 5.238277435302734 197 164 145
-1.6087111234664917 -0.33160778880119324 5.49160099029541 198 160 139
-2.616678476333618 -0.2211739420890808 5.305523872375488 108 73 53
-1.6650996208190918 -0.7137144207954407 5.565370082855225 131 98 79
-3.1672143936157227 -0.21093213558197021 5.219655513763428 115 88 71
-2.8769447803497314 -0.16904141008853912 5.246933937072754 80 58 49
-3.1730527877807617 -0.05856309458613396 5.189178466796875 135 113 106
-1.530463695526123 -0.005813285242766142 5.410756587982178 153 115 94
-3.189276695251465 -0.11442197859287262 5.202750205993652 213 194 175
-0.7452042102813721 -1.9608958959579468 5.228796005249023 2 15 1
-2.4448862075805664 -1.1587693691253662 5.509646892547607 155 90 58
-2.5192904472351074 -0.11609094589948654 5.293330192565918 189 153 128
-2.849217176437378 -0.2544560134410858 5.277806758880615 201 165 143
-2.6196129322052 -0.18170765042304993 5.295638561248779 191 158 127
-3.1227447986602783 -0.519461452960968 5.309084892272949 145 110 88
-3.0126254558563232 -0.09947072714567184 5.212228775024414 147 116 98
-2.4066014289855957 -0.3196450471878052 5.361232757568359 123 88 66
-0.9634479284286499 -2.5109691619873047 5.360075950622559 103 140 157
-1.0983103513717651 -0.03262164443731308 5.4584856033325195 155 117 96
-2.5624570846557617 -1.1883563995361328 5.474419116973877 77 33 26
-3.0582873821258545 -1.8452824354171753 4.628408908843994 74 149 110
-2.814383029937744 -0.11627436429262161 5.253940105438232 144 109 90
-3.5543293952941895 -0.29230037331581116 5.19600248336792 204 177 152
-2.214576005935669 -1.8334194421768188 4.888593673706055 169 210 231
-2.849224328994751 -0.15102708339691162 5.251399517059326 171 141 125
-1.7819777727127075 -0.005396474618464708 5.3638014793396 155 119 103
-3.5543293952941895 -0.29230037331581116 5.19600248336792 204 177 152
-1.660554051399231 -2.5164337158203125 5.1181864738464355 64 90 107
-0.572604775428772 -0.8891141414642334 5.7763566970825195 197 167 150
-0.8264020681381226 -0.5273203253746033 5.654067516326904 179 144 124
-0.8085719347000122 -0.39859387278556824 5.613413333892822 167 135 114
-0.572604775428772 -0.8891141414642334 5.7763566970825195 197 167 150
-0.7769079804420471 0.06131157651543617 5.419992446899414 152 117 97
-1.0899959802627563 -0.11155497282743454 5.528100967407227 157 127 103
-0.388248085975647 -0.8529497981071472 5.748620510101318 195 168 147
-0.8023963570594788 -0.4123908579349518 5.608782768249512 130 101 87
-0.75713050365448 -0.18120141327381134 5.529177188873291 182 150 134
-0.9580290913581848 -0.42738962173461914 5.628502368927002 85 58 48
-1.0660187005996704 -0.12739819288253784 5.535758972167969 138 106 86
-0.850123405456543 -0.6961195468902588 5.707131862640381 196 168 147
-0.7471364736557007 -0.7151203155517578 5.726936340332031 141 109 94
-0.3498160243034363 -0.8656525611877441 5.7503132820129395 196 171 151
-0.5519242882728577 -0.8947904706001282 5.766188144683838 119 90 74
-0.8271227478981018 -0.1716102957725525 5.525007247924805 54 37 37
-0.6785585284233093 -0.8341683149337769 5.748323917388916 128 99 83
-0.8705760836601257 -0.39663827419281006 5.609775543212891 174 138 116
-0.9580290913581848 -0.42738962173461914 5.628502368927002 85 58 48
-0.6751018762588501 -0.46099308133125305 5.61988639831543 212 180 159
-0.7250255942344666 -0.727497935295105 5.726891040802002 190 160 135
-1.0708154439926147 -0.10751652717590332 5.516145706176758 65 46 38
-0.46290305256843567 -0.8822059035301208 5.767766952514648 188 157 136
-0.6386210322380066 -0.9317396879196167 5.792605876922607 130 103 86
-0.7284192442893982 -0.47999244928359985 5.623691558837891 178 142 120
-0.6763529777526855 -0.5741525292396545 5.663766384124756 192 164 143
-0.8564553260803223 -0.007800944149494171 5.466454029083252 79 63 55
-0.850123405456543 -0.6961195468902588 5.707131862640381 196 168 147
-1.0991601943969727 -0.14368709921836853 5.52457857131958 152 117 92
-0.36881381273269653 -0.8271093368530273 5.744847774505615 94 72 61
-0.76316899061203 -0.3459467887878418 5.591855525970459 187 150 131
-0.40478187799453735 -0.6235602498054504 5.676905632019043 93 64 48
-0.6763529777526855 -0.5741525292396545 5.663766384124756 192 164 143
-0.7556931972503662 -0.7412062287330627 5.734242916107178 190 159 138
-1.0660187005996704 -0.12739819288253784 5.535758972167969 138 106 86
-0.4035320580005646 -0.8616958260536194 5.75264835357666 197 170 151
-0.7110360860824585 -0.12912723422050476 5.505710601806641 158 124 104
-0.8564553260803223 -0.007800944149494171 5.466454029083252 79 63 55
-0.4684189558029175 -0.489385187625885 5.60665225982666 163 131 110
-0.8147128820419312 -0.1644705832004547 5.527503490447998 62 43 36
-0.5846306085586548 0.09584493190050125 5.38991641998291 147 117 96
-0.38062360882759094 -0.6341883540153503 5.663827896118164 163 131 104
-0.6224090456962585 -0.88758385181427 5.767305850982666 110 81 67
-0.46144792437553406 -0.34146401286125183 5.573276519775391 137 105 90
-0.4825993776321411 -0.24300788342952728 5.513116359710693 185 146 117
-0.840578019618988 -0.1784709244966507 5.529305934906006 71 54 48
-0.723484992980957 -0.13573478162288666 5.499170303344727 159 128 108
-0.8147128820419312 -0.1644705832004547 5.527503490447998 62 43 36
-1.0646672248840332 -0.3076426386833191 5.599508762359619 52 31 19
-0.6978422999382019 -0.7809551358222961 5.743797302246094 211 178 159
-0.7931432127952576 0.012040338478982449 5.443928241729736 148 110 89
-0.5915718078613281 -0.7495961785316467 5.7248382568359375 127 98 82
-0.40519729256629944 -0.38289520144462585 5.568472385406494 135 104 84
-0.8994688987731934 -0.34647077322006226 5.598172664642334 158 131 117
-0.6295931935310364 -0.2615137994289398 5.53110408782959 179 147 122
-0.6100039482116699 -0.18091708421707153 5.5196051597595215 185 154 134
-0.9046441912651062 -0.3490809202194214 5.599173545837402 98 74 62
-0.3438042998313904 -0.7930102348327637 5.729555606842041 183 156 135
-0.4294533133506775 -0.8880124092102051 5.769394874572754 121 85 72
-0.8134943842887878 -0.43428656458854675 5.6152801513671875 170 133 114
-0.5824110507965088 -0.6525149941444397 5.679478645324707 189 161 137
-0.5615518689155579 -0.12478544563055038 5.47141695022583 137 106 88
-0.5851913094520569 -0.623879611492157 5.6707539558410645 138 105 88
-0.4359692335128784 -0.8102668523788452 5.733287334442139 129 98 81
-1.000958800315857 -0.5117400884628296 5.650736331939697 107 76 58
-0.9647162556648254 -0.2915996313095093 5.586796283721924 69 47 32
-1.0566823482513428 -0.3974214196205139 5.629162311553955 183 148 128
-0.7757339477539062 -0.1757533848285675 5.519961833953857 170 141 125
-1.0899959802627563 -0.11155497282743454 5.528100967407227 157 127 103
-0.4449751079082489 -0.8948580026626587 5.764832496643066 152 125 102
-0.5290119051933289 -0.6122812032699585 5.668709754943848 138 106 93
-0.8983404040336609 -0.3844051957130432 5.60051155090332 189 157 135
-0.7511025071144104 -0.3369743824005127 5.585909366607666 173 137 120
-0.6166781783103943 -0.5579047799110413 5.652370452880859 179 150 132
-0.899238109588623 -0.4842517375946045 5.633432865142822 173 138 116
-0.6622835993766785 -0.5654950737953186 5.65808629989624 179 148 130
-0.5107092261314392 -0.03520086407661438 5.456568717956543 135 113 94
-0.8412848711013794 -0.4318575859069824 5.6129350662231445 155 120 100
-0.9392995834350586 -0.37233537435531616 5.60890007019043 95 71 57
-0.9677425026893616 -0.28489428758621216 5.583560943603516 158 130 106
-0.4027233123779297 -0.5830431580543518 5.6413750648498535 187 153 128
-0.83736252784729 -0.2658625543117523 5.578411102294922 124 93 76
-0.8555598855018616 -0.5027543306350708 5.657384872436523 186 151 131
-0.9493314623832703 -0.22093316912651062 5.557069778442383 156 127 107
-0.7800256013870239 -0.9137275218963623 5.797636985778809 138 109 91
-0.6992048025131226 -0.585924506187439 5.668893337249756 175 144 124
-0.7886613011360168 -0.7348962426185608 5.722445011138916 175 147 125
-0.9298084378242493 -0.7002544403076172 5.730528354644775 144 117 96
-1.0928924083709717 0.07501453161239624 5.461833953857422 79 43 30
-0.72123122215271 -0.7049490213394165 5.718298435211182 127 101 86
-0.6487053632736206 0.07685575634241104 5.393212795257568 101 74 61
-0.30209916830062866 -0.795604944229126 5.729542255401611 118 90 78
-0.9592776894569397 -0.26171305775642395 5.5761847496032715 81 54 43
-1.0646672248840332 -0.3076426386833191 5.599508762359619 52 31 19
-0.5435593128204346 -0.2022145539522171 5.49342155456543 162 128 103
-0.8084242343902588 -0.8545325398445129 5.782119274139404 181 153 132
-0.6101268529891968 -0.32521215081214905 5.571677207946777 121 91 74
-0.9897713661193848 -0.42862698435783386 5.64169454574585 175 139 117
-0.8025522828102112 -0.7461483478546143 5.744548320770264 185 155 131
-0.7308504581451416 -0.12466604262590408 5.494406223297119 60 41 27
-0.6191276907920837 -0.36526238918304443 5.575220584869385 170 135 113
-0.6101967692375183 -0.2701280415058136 5.54036808013916 185 150 130
-0.8217248320579529 -0.7512267231941223 5.720104694366455 183 152 134
-0.8434222936630249 -0.005812990013509989 5.455613136291504 51 38 29
-0.6001872420310974 -0.17922437191009521 5.487203598022461 147 114 96
-0.8500657081604004 -0.38854965567588806 5.617447376251221 179 148 128
-0.47488024830818176 -0.43884503841400146 5.5927510261535645 183 152 131
-0.5600776076316833 -0.6888729333877563 5.693706512451172 131 106 86
-0.9298084378242493 -0.7002544403076172 5.730528354644775 144 117 96
-0.6888090968132019 -0.10847567766904831 5.48049259185791 58 43 38
-0.5435593128204346 -0.2022145539522171 5.49342155456543 162 128 103
-0.5545491576194763 -0.22819577157497406 5.515816688537598 182 148 128
-0.40696030855178833 -0.9029077887535095 5.769279956817627 153 123 107
-0.4519007205963135 -0.7973828315734863 5.727950572967529 172 145 126
-0.9338003993034363 -0.614978015422821 5.7036051750183105 147 114 95
-0.5656176209449768 0.09036880731582642 5.370292663574219 154 126 106
-0.5122193694114685 -0.16143140196800232 5.502275466918945 49 36 29
-0.9352324604988098 -0.22570326924324036 5.555067539215088 55 46 40
-0.855184018611908 -0.7409217953681946 5.721985816955566 141 113 101
