ply
format ascii 1.0
element vertex 702
property float x
property float y
property float z
property uchar red
property uchar green
property uchar blue
end_header
0.09339281916618347 0.8790146112442017 8.859594345092773 63 64 56
-0.2952192425727844 1.4746568202972412 7.501297950744629 55 60 63
-0.03074164129793644 1.6677407026290894 7.798139572143555 182 184 183
0.2778288424015045 1.9387264251708984 7.888952732086182 67 78 140
-0.05348587408661842 1.859570860862732 7.255998611450195 57 57 85
0.46888604760169983 -0.0016907586250454187 8.395617485046387 36 50 50
0.4993283450603485 -0.3867217004299164 8.484336853027344 180 194 171
-0.07882637530565262 -0.24554257094860077 8.271509170532227 107 107 81
-0.005536066833883524 0.18610045313835144 8.303871154785156 143 163 162
0.22682785987854004 2.0243470668792725 7.891589164733887 21 44 98
-0.11813247203826904 1.4050954580307007 8.435818672180176 99 154 123
0.297135591506958 -0.6294050812721252 8.55436897277832 150 158 145
-1.6815035343170166 1.5332231521606445 8.108597755432129 158 164 160
-0.1523451805114746 -0.4122968316078186 8.343992233276367 201 218 208
0.31153765320777893 -0.2240830510854721 8.299287796020508 168 173 166
-0.38209596276283264 -0.5183952450752258 8.456833839416504 206 200 188
-1.8071869611740112 1.849733829498291 7.673438549041748 124 162 173
0.25323042273521423 0.4679654538631439 8.493017196655273 72 89 107
0.48148807883262634 1.0762264728546143 9.072930335998535 50 45 51
-0.593033492565155 -0.21849478781223297 8.480491638183594 167 173 159
0.23646999895572662 0.3777351677417755 8.434671401977539 98 122 126
-0.2474881112575531 -0.19378133118152618 8.295424461364746 140 151 134
-0.3289795517921448 1.4547078609466553 7.481995582580566 141 160 166
0.007428344339132309 -0.5009239315986633 8.359939575195312 121 129 118
0.227740079164505 -0.7915807366371155 8.85940933227539 197 180 160
-1.4032237529754639 1.696478009223938 7.568802833557129 142 136 164
0.29702940583229065 -0.4667401909828186 8.41648006439209 205 226 219
-0.0844808891415596 1.35154128074646 8.486729621887207 86 95 74
-0.20253980159759521 0.20956535637378693 8.303848266601562 127 145 145
0.6111297607421875 -0.2879914939403534 8.535859107971191 138 125 109
-0.3030628561973572 -0.05858064442873001 8.328695297241211 158 168 160
-0.5866795778274536 0.20896005630493164 8.53112506866455 133 157 159
-0.5005812048912048 -0.4425654709339142 8.514716148376465 182 165 157
-2.302309274673462 1.6124507188796997 7.855275630950928 148 163 182
-0.16251930594444275 -0.15723583102226257 8.256484985351562 118 100 96
-0.048113513737916946 -0.722434937953949 8.56296443939209 157 172 167
-0.12205975502729416 -0.5911480188369751 8.471650123596191 234 248 233
0.5684504508972168 0.01329061109572649 8.477315902709961 149 165 162
-1.630517840385437 1.4758272171020508 8.038349151611328 193 199 185
-1.5862613916397095 1.4748191833496094 8.059266090393066 37 52 55
-0.133052259683609 1.3083515167236328 8.496306419372559 182 182 148
-1.1417385339736938 1.5405972003936768 8.08138656616211 32 34 33
-0.25181159377098083 -0.22718285024166107 8.292872428894043 174 186 182
0.370849609375 -0.4877551794052124 8.455504417419434 138 159 144
-1.00994074344635 1.4875754117965698 8.241222381591797 17 32 53
-0.4246602952480316 1.7498975992202759 7.385921955108643 123 123 131
-0.14797787368297577 -0.6093591451644897 8.46095085144043 232 240 219
0.4864003360271454 -0.16975708305835724 8.395894050598145 104 115 101
-0.4242798984050751 1.8949005603790283 7.050048351287842 95 124 128
0.44572052359580994 -0.20360809564590454 8.3821439743042 60 71 63
-0.40232542157173157 1.5214285850524902 7.456475257873535 61 95 130
0.0811573714017868 0.05619419738650322 8.270345687866211 158 173 170
-0.49349671602249146 -0.40905338525772095 8.468511581420898 180 168 152
-0.9882321953773499 1.758501410484314 7.247753620147705 43 54 100
-0.03545531630516052 0.02401316538453102 8.258790969848633 150 166 166
0.45780643820762634 0.24640130996704102 8.452737808227539 24 43 60
-2.0083045959472656 2.2971303462982178 6.505670070648193 204 217 233
0.6639412641525269 0.3247207999229431 8.842819213867188 84 107 115
-0.015601011924445629 1.1232373714447021 9.498611450195312 18 19 23
0.18115156888961792 1.8268808126449585 7.665830612182617 136 138 124
-0.2683725357055664 0.26448917388916016 8.349284172058105 119 145 144
0.17842189967632294 1.8140108585357666 7.672041893005371 37 49 65
-0.3756725788116455 0.16766156256198883 8.384519577026367 137 160 144
-0.5510619282722473 -0.4379543364048004 8.54110050201416 183 180 163
-1.5862613916397095 1.4748191833496094 8.059266090393066 37 52 55
-0.2379031628370285 2.099810838699341 6.940915584564209 94 82 120
0.44294944405555725 -0.14153531193733215 8.37162971496582 147 163 152
-0.17860040068626404 0.9766920804977417 9.1154203414917 131 135 118
0.3288811445236206 0.2379487156867981 8.382616996765137 128 141 134
0.39244866371154785 -0.08391078561544418 8.346406936645508 150 153 132
0.15980727970600128 -0.5430262684822083 8.420816421508789 220 228 215
0.43251293897628784 -0.5646335482597351 8.565881729125977 132 139 131
-0.5533159375190735 -0.08886320888996124 8.429911613464355 154 160 160
0.45181068778038025 0.13196642696857452 8.422622680664062 132 159 170
0.28607305884361267 1.032666802406311 9.053579330444336 21 18 25
0.25124043226242065 1.9789750576019287 7.804906845092773 33 40 92
-0.4219166338443756 1.2095402479171753 7.511260032653809 114 148 193
-0.6086550951004028 1.7076457738876343 7.422677040100098 36 28 41
-2.136584997177124 1.8781113624572754 7.875943660736084 75 94 134
-1.3905022144317627 1.6657150983810425 7.682555675506592 46 46 46
0.7622599601745605 -0.732059895992279 8.901432991027832 117 103 100
-1.488648533821106 1.5643991231918335 8.03039264678955 51 46 40
1.0745813846588135 -0.8817039728164673 9.043359756469727 114 118 95
0.5393653512001038 1.5449203252792358 9.063612937927246 70 67 48
0.22236312925815582 -0.6070044040679932 8.477008819580078 214 234 222
0.6904294490814209 1.3523653745651245 8.981575965881348 89 87 72
-0.015601011924445629 1.1232373714447021 9.498611450195312 18 19 23
0.059342943131923676 1.6498924493789673 7.886331081390381 168 173 176
0.6722173690795898 1.5893772840499878 8.995460510253906 124 112 90
0.5284349918365479 -0.23297962546348572 8.441008567810059 149 137 115
0.37781408429145813 -0.4087175726890564 8.461721420288086 194 197 190
0.4082428216934204 -0.994770348072052 9.06035327911377 112 94 90
-0.5271508693695068 -0.3550441861152649 8.473938941955566 115 106 91
-1.0203542709350586 1.466791033744812 8.267998695373535 172 189 196
0.024517878890037537 1.6846439838409424 7.775542259216309 55 60 64
-1.1092255115509033 1.5119463205337524 8.111129760742188 30 37 43
-0.16999882459640503 -0.33433908224105835 8.311860084533691 91 93 92
0.12211515754461288 1.4150694608688354 8.6402587890625 196 206 208
-1.5873609781265259 1.4546295404434204 8.055171966552734 173 178 171
0.23248349130153656 -0.3743777275085449 8.332558631896973 55 66 70
-1.1092255115509033 1.5119463205337524 8.111129760742188 30 37 43
0.5092210173606873 -0.4780464470386505 8.556296348571777 201 180 161
-0.6007503867149353 0.23291151225566864 8.556242942810059 104 122 122
-0.4687533378601074 0.020677367225289345 8.386835098266602 112 121 116
-1.2121015787124634 1.8774113655090332 7.400923728942871 137 169 190
-0.2086564153432846 -0.009793302044272423 8.28230094909668 163 172 169
1.0877037048339844 -1.098766565322876 9.035364151000977 200 198 177
0.27471446990966797 -0.25243303179740906 8.303262710571289 179 190 173
0.276260107755661 -0.12093667685985565 8.29971981048584 87 93 79
0.16998924314975739 2.0364794731140137 7.740466117858887 32 55 109
0.36352667212486267 0.34475165605545044 8.482973098754883 87 114 135
-1.2748491764068604 1.7249587774276733 7.425869941711426 200 190 214
0.12566465139389038 0.43198856711387634 8.43765640258789 96 111 114
-1.5712209939956665 1.487679123878479 8.03747844696045 186 194 179
0.20361195504665375 0.14366096258163452 8.300593376159668 145 174 180
0.20248934626579285 0.2252199649810791 8.336252212524414 136 166 176
-0.02291424572467804 0.8816530108451843 8.941147804260254 58 59 54
0.3067036271095276 0.013527563773095608 8.31646728515625 138 159 162
0.38125476241111755 -0.5001195669174194 8.467164993286133 215 235 223
0.10287630558013916 0.4008294343948364 8.420620918273926 83 108 112
-2.0213491916656494 1.6921336650848389 7.726012706756592 54 68 105
0.12645983695983887 -0.025262415409088135 8.265451431274414 158 177 171
0.5160589218139648 -1.0761579275131226 8.981367111206055 111 100 106
0.12926335632801056 1.7285082340240479 7.709307670593262 124 129 106
-1.2837719917297363 1.6658474206924438 7.640969276428223 45 48 53
-0.8592615723609924 1.95200514793396 7.32944917678833 111 138 147
-0.31910014152526855 -0.4687303602695465 8.423974990844727 212 223 217
-0.3111111521720886 1.5659056901931763 7.48664665222168 91 118 145
-0.21675966680049896 1.1541093587875366 9.052793502807617 56 66 75
-0.18586233258247375 -0.29207322001457214 8.294902801513672 198 204 190
0.2623462378978729 -0.3124098777770996 8.318916320800781 193 207 194
-1.4216831922531128 1.393584966659546 8.3836669921875 233 244 248
-0.3771825134754181 1.2497050762176514 7.529958724975586 31 43 65
-0.6043585538864136 1.7879347801208496 7.102499008178711 93 71 109
0.05059586837887764 0.21969389915466309 8.323989868164062 138 168 170
-1.7215940952301025 1.9463386535644531 7.711816787719727 54 57 100
-0.1586865484714508 -0.17798690497875214 8.274433135986328 62 60 61
-0.3771866261959076 1.9552463293075562 7.04156494140625 117 135 159
-0.04103836789727211 -0.4023151695728302 8.313446998596191 196 213 197
-0.35024261474609375 -0.27436572313308716 8.326842308044434 60 55 62
0.39017680287361145 -0.7679318189620972 9.024888038635254 63 55 52
0.22007840871810913 -0.25973087549209595 8.281726837158203 189 208 189
-0.02218751795589924 -0.5543248653411865 8.400043487548828 225 239 222
0.2701481878757477 -0.33525970578193665 8.325933456420898 160 170 159
0.8578994274139404 -0.15412963926792145 8.905068397521973 111 89 91
-0.26051419973373413 -0.20969483256340027 8.304845809936523 75 80 83
-0.32305365800857544 -0.0728180855512619 8.319998741149902 56 67 71
0.17203330993652344 1.6812318563461304 7.860372066497803 82 87 91
0.8089252710342407 0.8650609254837036 8.957295417785645 110 97 107
-1.6458150148391724 1.6198996305465698 7.8796796798706055 104 116 114
-0.3948405086994171 1.202526330947876 8.685797691345215 78 96 96
0.37063899636268616 0.3934926986694336 8.510114669799805 25 43 63
-0.3505319058895111 -0.1374107152223587 8.316736221313477 161 168 161
-2.0295026302337646 1.673190951347351 7.72636079788208 142 155 187
-0.3183279037475586 -0.04288617894053459 8.3109130859375 83 93 85
0.1718476563692093 -0.3796745836734772 8.330458641052246 168 185 175
0.4656214118003845 -0.1876274049282074 8.388203620910645 168 179 162
0.22948938608169556 1.678610920906067 8.043886184692383 63 56 74
0.6273324489593506 1.4264363050460815 8.989795684814453 56 50 52
-0.3120369017124176 -0.0939333364367485 8.317959785461426 142 148 146
-1.6902883052825928 1.702492117881775 7.589324474334717 64 67 112
-0.7048835754394531 1.8563411235809326 7.188815116882324 95 122 149
-0.7700290083885193 1.6961944103240967 7.441412448883057 88 81 99
0.12926335632801056 1.7285082340240479 7.709307670593262 124 129 106
0.5822007656097412 -0.21758227050304413 8.498764991760254 50 45 51
0.4622192084789276 0.28239309787750244 8.490921020507812 92 107 104
-0.5047576427459717 0.2802574634552002 8.517333030700684 106 121 118
-0.3172822892665863 0.2678883373737335 8.379864692687988 109 130 125
0.18376357853412628 -0.41049066185951233 8.366560935974121 187 204 196
-0.050617948174476624 1.6107690334320068 7.9749755859375 213 232 226
-0.31981968879699707 -0.13105998933315277 8.31093692779541 155 167 163
-1.2824267148971558 1.6646748781204224 7.636920928955078 45 48 53
-0.23780184984207153 1.7914546728134155 7.1047163009643555 147 129 141
0.31413570046424866 0.242750346660614 8.375638008117676 133 154 147
-0.4834881126880646 0.24484193325042725 8.466540336608887 134 144 136
-0.18473635613918304 1.7016488313674927 7.61173152923584 56 65 64
0.060074858367443085 -0.07578622549772263 8.267772674560547 153 171 157
-0.44551852345466614 1.5755568742752075 7.42416524887085 74 108 136
-0.022929420694708824 0.19361181557178497 8.305974006652832 118 133 128
0.2891775369644165 -0.16177129745483398 8.301515579223633 154 166 162
0.9403987526893616 1.2374622821807861 9.268854141235352 151 219 255
-0.06681962311267853 0.1905924677848816 8.306982040405273 122 138 138
0.8317177891731262 1.2356607913970947 9.050353050231934 133 163 173
-1.0996447801589966 1.6754156351089478 7.599616050720215 154 169 174
0.04051612317562103 -0.16354243457317352 8.25536823272705 182 199 191
-0.00040193760651163757 1.6098436117172241 8.088821411132812 208 228 216
-0.057856883853673935 0.2312026470899582 8.311933517456055 119 131 131
-1.2324466705322266 1.6716203689575195 7.627955436706543 60 57 66
0.6671310067176819 -1.0452626943588257 8.874130249023438 128 122 96
-0.08648526668548584 0.07281042635440826 8.27249526977539 158 177 173
0.19863326847553253 1.780104160308838 7.752729892730713 37 39 54
-0.34095266461372375 2.102846622467041 6.987154006958008 73 67 111
0.2978578209877014 -0.4668193459510803 8.4093017578125 205 226 219
-1.2167268991470337 1.6703344583511353 7.632476806640625 61 64 73
-0.5437395572662354 1.1382137537002563 8.699377059936523 46 81 61
-1.044356107711792 -1.110857367515564 9.660660743713379 109 89 82
-0.4560430347919464 1.2569959163665771 7.520984649658203 31 47 81
-0.46680107712745667 -0.10153435170650482 8.389144897460938 148 159 151
-1.006847858428955 1.7352824211120605 7.3149871826171875 134 125 152
0.01495213620364666 1.6405678987503052 7.895285129547119 151 155 158
-1.0705772638320923 1.7942583560943604 7.30564022064209 30 38 57
-1.1968878507614136 1.0040088891983032 8.963532447814941 174 168 168
-2.3220551013946533 1.9626823663711548 7.926614761352539 48 79 123
-0.2499292641878128 -0.006189127452671528 8.289580345153809 125 144 125
-0.47537726163864136 1.576791524887085 7.407353401184082 67 107 142
-1.3065682649612427 1.1141053438186646 8.886980056762695 68 70 67
0.046735864132642746 0.2870974540710449 8.262177467346191 136 160 160
0.4204311668872833 -0.08807182312011719 8.34230899810791 123 114 97
-0.711867094039917 0.381399929523468 8.858476638793945 125 148 180
0.20068122446537018 1.718313217163086 7.859296798706055 22 24 36
0.6882290840148926 -0.833152711391449 8.871027946472168 93 80 74
-1.4135875701904297 1.4081990718841553 8.4266939163208 157 191 218
-0.8381541967391968 1.7423731088638306 7.3025221824646 138 134 149
0.04051612317562103 -0.16354243457317352 8.25536823272705 182 199 191
0.7881495356559753 -0.31282666325569153 8.886002540588379 49 44 50
-0.9895817041397095 1.722607970237732 7.261844635009766 134 129 152
0.11900248378515244 1.6841789484024048 7.781132698059082 129 139 128
0.6135479807853699 1.8872873783111572 8.566244125366211 55 79 117
-1.3803775310516357 1.6436619758605957 7.669765472412109 157 159 171
0.3971421718597412 -0.28020843863487244 8.389245986938477 162 166 152
0.32259851694107056 0.029261644929647446 8.328079223632812 49 58 63
-0.045772843062877655 1.8596696853637695 7.282757759094238 56 48 72
-0.3820395767688751 -0.30519533157348633 8.361612319946289 136 112 102
-0.48807376623153687 1.30826997756958 7.4514923095703125 99 133 161
-1.5770370960235596 1.4990476369857788 8.007158279418945 57 59 58
0.7520511746406555 1.1715363264083862 8.883846282958984 70 61 64
-0.16815683245658875 -0.26680541038513184 8.28541088104248 72 79 72
0.00581220630556345 1.9049283266067505 7.308809757232666 117 127 137
-1.6561740636825562 1.5803543329238892 7.9244160652160645 79 82 73
-1.4799203872680664 1.6586575508117676 7.702738285064697 44 44 42
-0.061508215963840485 0.04720849171280861 8.262296676635742 104 117 110
-1.0465588569641113 1.0562742948532104 8.861706733703613 54 54 52
-0.5296871662139893 1.3829792737960815 7.426372528076172 39 73 101
-0.21785075962543488 1.65652334690094 7.544118881225586 31 31 41
0.4766092002391815 -0.4150359332561493 8.492791175842285 185 189 174
0.32609379291534424 0.3086777329444885 8.421149253845215 95 128 143
0.009363881312310696 1.8696011304855347 7.297098159790039 36 45 84
-0.24161472916603088 -0.14558610320091248 8.282814979553223 59 63 64
0.11327327787876129 1.6246631145477295 8.092085838317871 202 214 204
0.8996773362159729 -1.1002529859542847 8.820817947387695 195 198 187
-0.8178495764732361 1.0830256938934326 8.777881622314453 73 119 117
0.535431444644928 -0.6496990323066711 8.92014217376709 64 55 56
0.14603407680988312 0.8324768543243408 8.862582206726074 61 61 49
-0.21760772168636322 -0.28510165214538574 8.303269386291504 166 182 172
-0.30403682589530945 -0.588967502117157 8.533516883850098 200 184 168
-0.7870199084281921 1.7644641399383545 7.477865219116211 135 122 140
0.02867022156715393 1.5775619745254517 8.225927352905273 134 138 141
0.5458871722221375 1.4012013673782349 9.047131538391113 70 58 62
0.2607644200325012 -0.4716365337371826 8.3893461227417 220 238 226
0.21670596301555634 0.8913258910179138 8.835685729980469 106 99 89
-0.00484818359836936 0.3340606391429901 8.37149429321289 120 148 152
-0.5383396744728088 1.0628641843795776 8.806517601013184 84 61 53
-1.4001355171203613 1.4187804460525513 8.392658233642578 230 240 242
0.7411582469940186 -0.3459272086620331 8.887635231018066 50 37 44
-0.47302815318107605 1.380260944366455 7.44989013671875 158 178 187
-0.005824466235935688 1.7341562509536743 7.557987689971924 156 135 144
-0.47346237301826477 1.6448990106582642 7.467177391052246 27 42 61
0.522395670413971 0.47142350673675537 8.69053840637207 69 94 124
0.5759457349777222 -0.23135855793952942 8.499305725097656 140 122 108
0.08356638997793198 -0.7374905943870544 8.615214347839355 146 152 148
-0.2671278119087219 1.6485978364944458 7.608917236328125 23 30 48
-0.08026845008134842 1.5874987840652466 8.274880409240723 156 162 162
-0.2985740900039673 1.4976515769958496 7.4876203536987305 176 195 191
-0.6030462384223938 1.609521746635437 7.405548572540283 51 70 103
0.12554851174354553 1.6708098649978638 7.798318862915039 102 106 115
0.5574122667312622 -0.2018240988254547 8.44879150390625 143 127 112
-1.1602925062179565 1.3478617668151855 7.96288537979126 117 122 115
-0.3527824878692627 -0.16569189727306366 8.32022476196289 165 179 166
0.11900248378515244 1.6841789484024048 7.781132698059082 129 139 128
0.5939558148384094 0.12352216243743896 8.51754093170166 141 163 176
-0.2808525264263153 0.1345193237066269 8.331686973571777 81 85 88
-0.6777858734130859 0.9613702297210693 9.50580883026123 67 50 56
-0.8956769108772278 1.734952449798584 7.278746128082275 140 151 169
0.5882502198219299 -0.23784634470939636 8.503100395202637 143 127 112
-0.4466915428638458 1.7779916524887085 7.085096836090088 99 95 110
0.32065868377685547 -0.5672430396080017 8.503910064697266 221 229 214
-0.06781892478466034 -0.2748088836669922 8.268177032470703 110 112 99
-0.25990208983421326 1.451616644859314 7.4983720779418945 50 83 126
0.4307297468185425 1.601444125175476 8.960556030273438 63 51 55
0.1925409734249115 1.7103253602981567 7.855918884277344 48 50 71
0.8471404910087585 -0.03425568714737892 8.908071517944336 91 76 83
0.610039234161377 -0.22071196138858795 8.526667594909668 45 42 49
-1.0933806896209717 1.940733551979065 7.313569068908691 106 140 150
-0.6548118591308594 1.9383152723312378 7.191742897033691 98 116 120
-0.518210768699646 1.8185243606567383 7.028892993927002 47 52 107
0.6358992457389832 0.2738632559776306 8.71432113647461 90 123 156
0.8134387731552124 1.1350369453430176 8.985835075378418 115 110 142
0.22599035501480103 -0.07394635677337646 8.282357215881348 127 130 113
-0.07589363306760788 0.2353326380252838 8.328585624694824 59 67 69
-1.5984759330749512 1.3911504745483398 8.599720001220703 225 244 242
0.2893827557563782 -0.6669961214065552 8.577587127685547 222 228 202
-1.6172326803207397 1.4015098810195923 8.501127243041992 145 182 198
0.25232651829719543 -0.5048632025718689 8.401782989501953 219 234 229
-0.18615135550498962 -0.32452166080474854 8.308084487915039 201 211 202
-0.11692018806934357 0.1267351657152176 8.278507232666016 125 142 132
0.46075162291526794 -0.12985484302043915 8.3834810256958 73 78 72
-1.5255612134933472 1.8882269859313965 7.558107376098633 124 159 181
-0.3467753529548645 -0.11771570891141891 8.323086738586426 163 173 162
0.31286028027534485 0.1762726753950119 8.355042457580566 139 168 172
0.24255245923995972 -0.14186786115169525 8.288022994995117 163 182 178
-0.3268914818763733 -0.186692014336586 8.322729110717773 154 157 148
0.0091626001521945 0.1037680059671402 8.290641784667969 153 180 173
0.25802159309387207 -0.6635254621505737 8.583783149719238 221 228 210
-0.7059549689292908 2.300553321838379 7.84134578704834 69 63 99
0.5160428285598755 0.3648390471935272 8.604296684265137 33 46 62
-0.12999604642391205 -1.1260864734649658 9.245262145996094 197 184 176
-1.2167268991470337 1.6703344583511353 7.632476806640625 61 64 73
0.11627530306577682 -0.645513653755188 8.503945350646973 220 226 214
-0.5473390221595764 -0.293617844581604 8.457479476928711 171 156 149
0.4679550230503082 0.4761119484901428 8.684883117675781 55 66 98
0.8794059753417969 -0.6069319844245911 8.87187385559082 121 110 118
-0.5195533633232117 1.4361975193023682 7.416328430175781 66 80 115
-0.2333807498216629 0.24391768872737885 8.362045288085938 137 149 147
0.4306853115558624 0.09590332955121994 8.385201454162598 88 109 110
-1.6211811304092407 1.6373919248580933 7.807411193847656 60 55 62
-0.24550534784793854 1.2558202743530273 8.541481018066406 147 151 118
0.6309814453125 -0.2401033490896225 8.549094200134277 156 134 123
-0.12238669395446777 0.3135720193386078 8.361802101135254 122 133 125
-1.8235307931900024 1.6803046464920044 7.652539253234863 179 184 216
-0.0027845974545925856 0.2939818501472473 8.340154647827148 140 163 155
-0.21809172630310059 0.37088873982429504 8.392986297607422 99 93 79
-0.5940960645675659 1.490496277809143 7.40169620513916 54 87 120
0.01983531564474106 0.16403652727603912 8.282596588134766 117 136 132
-0.3256118893623352 0.5301767587661743 8.57903003692627 45 47 36
0.10828474164009094 1.7832454442977905 7.597508430480957 47 42 62
0.2822054326534271 0.05444391444325447 8.312270164489746 157 171 156
0.8592467904090881 -0.15366655588150024 8.877876281738281 111 89 91
0.09902150183916092 1.527849793434143 8.395055770874023 59 87 73
-0.8331328630447388 1.7496559619903564 7.208862781524658 161 157 174
-0.3332749605178833 1.699315071105957 7.477850437164307 57 55 60
0.11622820794582367 -0.2122620791196823 8.24329662322998 168 186 174
0.13165968656539917 1.802935242652893 7.60929536819458 157 157 147
-0.24248464405536652 1.6925125122070312 7.562474727630615 100 100 74
-2.309408187866211 1.5402289628982544 8.153519630432129 154 223 255
0.1583794355392456 -0.4970436990261078 8.387165069580078 194 207 189
-0.06460005044937134 1.695011854171753 7.730576992034912 77 71 73
-1.4822534322738647 1.5068259239196777 8.009514808654785 155 147 128
-0.6071354746818542 1.71840500831604 7.414290428161621 87 97 99
-0.05013852193951607 -0.6600093841552734 8.504563331604004 237 252 245
0.20729351043701172 1.791555404663086 7.716870307922363 113 115 104
1.0423330068588257 -0.9651939272880554 9.019217491149902 94 100 100
0.8600003123283386 -0.17693594098091125 8.878287315368652 72 56 57
0.0983554944396019 1.8971583843231201 7.572737216949463 87 85 124
0.1005261167883873 -0.3980052173137665 8.319384574890137 171 181 173
-1.1311094760894775 1.7459381818771362 7.325039386749268 49 53 98
0.16398674249649048 -0.24488960206508636 8.30033016204834 170 180 155
-0.05638778582215309 -1.0773673057556152 9.233794212341309 93 65 62
-0.3245312571525574 -0.5756693482398987 8.503022193908691 210 193 183
0.1779099702835083 1.8824909925460815 7.628198623657227 86 110 122
0.7609273791313171 1.7747441530227661 8.835432052612305 28 45 71
0.4886862337589264 0.018414335325360298 8.403307914733887 133 126 110
-1.7838867902755737 1.6187127828598022 7.956552505493164 156 167 169
-0.5369695425033569 -0.2071884125471115 8.429786682128906 113 123 114
0.7730722427368164 -0.9744745492935181 8.910511016845703 101 83 73
0.21076607704162598 0.8991488814353943 8.89831829071045 106 99 89
0.12872643768787384 0.16139695048332214 8.304159164428711 145 164 170
1.087215781211853 -0.8000081181526184 9.088726997375488 102 103 87
-0.43336597084999084 1.8837800025939941 7.066867351531982 106 136 144
-0.5232968330383301 1.2140010595321655 7.500015735626221 109 139 175
-0.03076484054327011 1.6852211952209473 7.748396873474121 117 125 128
0.44479790329933167 -0.08785993605852127 8.367587089538574 89 81 79
0.5140048265457153 -0.001654455903917551 8.419751167297363 46 50 61
0.6745383739471436 -0.42704659700393677 8.780981063842773 156 125 107
-1.9221587181091309 1.8637138605117798 7.800526142120361 124 155 173
0.1568409502506256 1.7336598634719849 7.765079021453857 60 49 57
0.4112534523010254 1.7949618101119995 8.092954635620117 101 107 105
0.17860153317451477 1.9129382371902466 7.6517157554626465 89 106 122
-0.12027032673358917 -0.5727880001068115 8.422642707824707 204 212 201
-0.09784641116857529 -0.3866656422615051 8.30524730682373 174 188 165
0.012055517174303532 -0.03247704356908798 8.225746154785156 129 141 127
-0.08061990886926651 0.9915914535522461 9.105521202087402 38 48 47
-0.8475635051727295 1.2251014709472656 8.702306747436523 137 125 103
0.6206750273704529 -0.007054270710796118 8.522085189819336 38 41 46
-0.3436443507671356 -0.5923326015472412 8.528053283691406 113 92 99
-0.6179966330528259 0.5021333694458008 8.883118629455566 113 129 145
0.17911764979362488 1.6989506483078003 7.823880195617676 32 45 53
-2.245694875717163 1.564274549484253 8.174992561340332 156 222 255
-1.9591788053512573 1.6774168014526367 7.706552505493164 69 60 113
-0.12408997863531113 1.6790521144866943 7.708396911621094 177 182 176
-0.5211466550827026 -0.23278144001960754 8.43345832824707 181 191 167
-0.3775857090950012 -0.27251890301704407 8.375396728515625 56 53 60
0.4303337633609772 -0.46753326058387756 8.483367919921875 205 218 209
0.4588519334793091 0.3464280664920807 8.522028923034668 82 86 111
-0.1991514414548874 1.7617356777191162 7.213099956512451 86 69 87
-0.021278273314237595 0.21451446413993835 8.318687438964844 114 132 120
-0.1138620525598526 -0.6024954915046692 8.43524169921875 217 238 221
0.1074734553694725 0.44341984391212463 8.448166847229004 37 46 55
0.32768771052360535 -0.608343243598938 8.531088829040527 209 222 204
0.7139121294021606 1.8341495990753174 8.680635452270508 39 56 99
0.5719410181045532 0.24354420602321625 8.576239585876465 93 114 145
-0.9610322117805481 1.9831982851028442 7.329124450683594 96 124 146
-0.08110357820987701 1.047148585319519 9.1393461227417 24 28 29
-0.08033785223960876 -0.7502455711364746 8.624709129333496 221 238 220
-0.16919256746768951 -0.5242456197738647 8.4124755859375 237 250 241
-0.031148862093687057 1.5881675481796265 8.255603790283203 129 132 139
0.43630117177963257 0.15055903792381287 8.403517723083496 111 133 146
0.5785517692565918 -1.0753307342529297 8.970243453979492 58 53 59
-0.8147393465042114 1.6903984546661377 7.44599723815918 74 75 77
0.44691359996795654 -0.10730698704719543 8.378171920776367 162 150 126
-0.8531591892242432 1.6927086114883423 7.410259246826172 40 38 41
-1.2779486179351807 1.4715182781219482 8.058799743652344 181 183 159
-0.9032009840011597 1.0243080854415894 8.872187614440918 130 164 174
-0.15663684904575348 1.6309634447097778 7.632239818572998 178 190 188
-0.6808147430419922 1.7830744981765747 7.146699905395508 82 68 101
-0.3790335953235626 1.2986795902252197 8.52431583404541 133 134 116
0.25704634189605713 0.1519777923822403 8.339282035827637 116 140 140
-1.8706421852111816 1.6751774549484253 7.693237781524658 158 149 168
-0.9128204584121704 1.7159843444824219 7.341345310211182 59 48 52
0.7845457792282104 0.8720682263374329 8.957103729248047 63 52 60
-2.2277204990386963 1.9126065969467163 7.8920183181762695 79 83 84
0.17382942140102386 -0.5502694249153137 8.420857429504395 105 117 115
-0.6012048721313477 1.5452617406845093 7.394792556762695 53 69 103
-0.25605589151382446 -0.16305038332939148 8.290528297424316 74 76 71
0.5303890705108643 -0.3899531662464142 8.507079124450684 162 153 124
-0.18966245651245117 -0.19415877759456635 8.285977363586426 135 131 122
-0.8055613040924072 1.7568808794021606 7.202495574951172 188 183 203
-0.5343172550201416 -0.04940134659409523 8.414730072021484 153 158 161
-0.29502877593040466 0.1623889058828354 8.328166961669922 142 165 157
-0.4632940888404846 1.150072693824768 8.69405746459961 111 130 128
0.15219496190547943 1.6990530490875244 7.800410747528076 71 79 98
0.22151422500610352 1.8732601404190063 7.71104097366333 75 97 110
0.49749237298965454 0.4585099220275879 8.665827751159668 35 37 58
0.5289081335067749 -0.4193190932273865 8.512632369995117 174 153 136
-0.2840043306350708 -0.7979771494865417 8.869696617126465 211 193 173
0.5507937073707581 0.21632160246372223 8.526260375976562 131 141 142
-0.19534040987491608 -0.8659487366676331 9.046826362609863 34 34 32
0.23092083632946014 0.46973198652267456 8.49808120727539 66 94 98
-0.1339472532272339 1.0605127811431885 9.076972961425781 91 80 60
-0.16785168647766113 -0.28794774413108826 8.298601150512695 92 97 91
-1.0514004230499268 1.723198652267456 7.3310770988464355 163 170 178
-0.11948428303003311 -0.572274923324585 8.418007850646973 204 212 201
-1.1273198127746582 1.063730239868164 8.806469917297363 103 89 78
0.6240139007568359 0.19825299084186554 8.595364570617676 37 52 71
0.22614063322544098 0.12625934183597565 8.318655014038086 122 147 152
-0.907579243183136 1.3484351634979248 8.138117790222168 198 211 243
0.540120542049408 -0.02894507348537445 8.441459655761719 111 128 120
-0.2779638469219208 0.02244468405842781 8.273757934570312 150 169 165
-0.15953345596790314 -0.0865277573466301 8.265813827514648 162 165 154
0.6554941534996033 1.4722079038619995 8.994876861572266 104 98 76
-2.7967770099639893 1.9860023260116577 6.664187908172607 150 220 254
0.31242817640304565 0.21096421778202057 8.374850273132324 129 147 159
-0.4222607910633087 1.2117834091186523 8.650601387023926 40 71 53
0.14747539162635803 0.22930653393268585 8.284638404846191 141 174 183
-2.268303155899048 1.8132030963897705 7.904339790344238 118 153 173
0.8767896294593811 -1.0720386505126953 8.79406452178955 87 98 81
0.01332858670502901 1.027389645576477 9.087185859680176 8 18 17
0.6867998242378235 -0.4622405469417572 8.908761024475098 55 43 45
-0.43105289340019226 -0.1020241305232048 8.343133926391602 127 137 128
0.944496214389801 -1.0848504304885864 8.789402961730957 183 194 186
0.5602176189422607 1.6858776807785034 8.470653533935547 100 105 83
0.04656429961323738 -0.3635195195674896 8.29454231262207 201 209 194
-0.37383437156677246 2.0524673461914062 7.102701663970947 101 118 148
-0.04805756360292435 1.6498165130615234 7.896317481994629 156 164 167
-0.18228469789028168 0.411833792924881 8.423035621643066 53 42 50
0.7933608889579773 1.1803171634674072 8.963375091552734 108 90 106
-0.18071472644805908 1.1031461954116821 9.101628303527832 32 49 31
-1.2579636573791504 1.1804107427597046 8.706168174743652 57 60 65
-0.4186488389968872 1.6265360116958618 7.514013290405273 21 23 35
-0.6661570072174072 1.9289857149124146 7.1772637367248535 96 112 112
-0.3143169581890106 1.8151326179504395 6.981023788452148 149 136 153
-0.21965950727462769 -1.0670371055603027 8.95353889465332 109 92 98
-1.0838687419891357 1.5263457298278809 8.129789352416992 24 25 27
-0.29626956582069397 2.0264387130737305 7.034692287445068 73 84 106
-0.24091266095638275 0.8399913907051086 9.11900806427002 52 58 56
0.6110146045684814 0.010247673839330673 8.508106231689453 128 120 107
-0.5325273275375366 1.5585936307907104 7.38916015625 73 111 147
-1.0934256315231323 1.6618061065673828 7.5992112159729 51 51 63
-0.9503406286239624 1.3814574480056763 8.158613204956055 156 177 198
0.5120219588279724 0.02342943102121353 8.425532341003418 48 61 67
0.673193633556366 1.8781558275222778 8.773357391357422 46 64 126
-1.153662919998169 1.580377459526062 8.066558837890625 15 16 18
0.4341348111629486 0.6113462448120117 8.875141143798828 47 50 59
-1.0547019243240356 1.832893967628479 7.311280250549316 29 44 49
-0.6938115954399109 -0.20742686092853546 8.574804306030273 84 86 85
1.0289969444274902 -0.8650001883506775 9.023233413696289 80 96 96
-0.5352579355239868 -0.18067114055156708 8.427388191223145 114 128 113
-0.3196353614330292 -0.5806165933609009 8.492121696472168 201 183 173
-1.6991961002349854 1.42336106300354 8.277693748474121 227 242 237
-0.8922525644302368 1.6937412023544312 7.418715953826904 148 159 161
-0.09747933596372604 1.608675479888916 8.003335952758789 196 209 202
0.5379038453102112 0.12272118031978607 8.475235939025879 139 166 175
-0.20177064836025238 1.7078543901443481 7.584904193878174 38 39 41
-0.44891345500946045 0.2269498109817505 8.43964672088623 137 147 149
-0.3028009533882141 -0.4162059724330902 8.418719291687012 196 207 199
0.022157907485961914 -0.327022910118103 8.292250633239746 203 217 200
-0.554765522480011 -0.25848913192749023 8.459637641906738 174 176 163
0.2599349021911621 0.1098008081316948 8.32999038696289 131 150 148
-0.11821842193603516 0.3334118723869324 8.337188720703125 81 69 55
-0.5352579355239868 -0.18067114055156708 8.427388191223145 114 128 113
-0.4106551706790924 -0.01619447022676468 8.377178192138672 126 131 127
-2.0853514671325684 1.7699389457702637 7.80116081237793 58 67 98
-0.46204090118408203 -0.7022157907485962 8.821781158447266 207 215 194
-0.08033785223960876 -0.7502455711364746 8.624709129333496 221 238 220
0.576515257358551 1.7404308319091797 8.48421859741211 111 110 105
0.358062744140625 -0.009822714142501354 8.331831932067871 57 71 74
-0.676010012626648 1.1372582912445068 8.670040130615234 79 119 118
-0.43773484230041504 1.6901522874832153 7.429149150848389 67 80 63
-1.1940720081329346 1.8654001951217651 7.407138824462891 108 118 128
-0.3575378954410553 -0.19965443015098572 8.328666687011719 164 152 138
0.20729351043701172 1.791555404663086 7.716870307922363 113 115 104
0.4469432234764099 0.2722102403640747 8.4711275100708 34 43 58
-0.11577556282281876 1.7838624715805054 7.257762432098389 85 81 95
-0.9301969408988953 -1.0456061363220215 9.66501235961914 98 93 90
0.7407441735267639 -0.9757130146026611 8.877211570739746 98 80 76
0.14835625886917114 -0.049373090267181396 8.261884689331055 177 195 183
-0.1679680347442627 1.7582974433898926 7.298985958099365 92 78 93
-0.004526953212916851 0.12161490321159363 8.284940719604492 146 160 169
0.7470536231994629 -0.7232309579849243 8.86285400390625 114 102 102
-0.926282525062561 1.2081202268600464 8.864103317260742 85 82 67
0.6821936964988708 1.3154144287109375 9.035239219665527 53 42 50
-1.150549054145813 1.0265768766403198 8.804962158203125 113 89 61
-0.11655060201883316 1.836091160774231 7.137508392333984 80 70 79
-0.7081598043441772 -0.15122410655021667 8.577303886413574 166 162 150
-1.4716469049453735 1.6309105157852173 7.97493839263916 123 122 130
0.9173720479011536 -0.27807557582855225 8.878669738769531 101 90 94
-0.8713368773460388 1.031762719154358 8.71068286895752 86 124 133
0.6615332365036011 -0.9331179857254028 8.92635726928711 67 58 61
-1.5630170106887817 1.5133415460586548 8.016264915466309 155 157 133
0.456283837556839 0.0026592693757265806 8.409804344177246 81 81 83
-0.39205020666122437 1.463043451309204 7.458765506744385 39 44 48
-0.95802241563797 1.9607783555984497 7.318760395050049 44 49 69
0.5881799459457397 -0.20160461962223053 8.48090648651123 135 122 106
-0.29185765981674194 1.984559178352356 7.017543315887451 86 92 114
-0.37903788685798645 0.277095228433609 8.426481246948242 73 85 83
-0.07632893323898315 1.7220743894577026 7.603856086730957 132 118 133
-1.1310309171676636 1.6774604320526123 7.580728530883789 77 95 97
0.848213791847229 1.8948360681533813 9.18486499786377 28 43 98
-0.1294490545988083 -0.08718882501125336 8.277057647705078 168 182 169
0.5218966007232666 -0.7914106249809265 8.996225357055664 103 89 89
-0.31067168712615967 1.3022849559783936 7.532021522521973 129 158 190
0.1734098643064499 -0.5499852895736694 8.424187660217285 105 117 115
-0.9486761689186096 1.7293590307235718 7.251901149749756 61 62 92
-1.7978744506835938 1.9559406042099 7.675617218017578 84 80 115
-0.34789204597473145 0.22046150267124176 8.377362251281738 107 126 122
-0.0038838195614516735 0.31174424290657043 8.351232528686523 104 121 137
0.895168662071228 -0.0972251147031784 8.92691707611084 96 85 89
0.4638690650463104 0.20513074100017548 8.449636459350586 40 48 67
-0.5453437566757202 -0.24135443568229675 8.458931922912598 115 124 105
-1.6719046831130981 1.5911444425582886 7.90159797668457 62 63 55
0.011740481480956078 1.767503261566162 7.475644111633301 82 72 81
-0.6533569097518921 1.922454833984375 7.17963981628418 111 146 165
0.14292725920677185 0.40876302123069763 8.432273864746094 36 56 57
0.8850225806236267 -0.3527247905731201 8.83281421661377 80 58 61
0.3874094486236572 0.18456503748893738 8.394956588745117 79 107 121
0.061044588685035706 0.18911825120449066 8.303459167480469 114 139 135
-0.23842428624629974 0.11562196910381317 8.31546688079834 151 163 159
0.011740481480956078 1.767503261566162 7.475644111633301 82 72 81
-1.0624676942825317 0.9833558201789856 8.825127601623535 146 146 122
-0.6320111751556396 -0.07331359386444092 8.503377914428711 139 142 133
-0.11325429379940033 1.5753673315048218 8.163968086242676 206 219 209
-0.22737674415111542 -0.1565416157245636 8.265225410461426 133 122 116
-0.31559088826179504 -0.6956669092178345 8.640698432922363 216 230 215
0.6699256896972656 1.6820385456085205 8.763254165649414 123 102 111
-1.8598346710205078 1.664907455444336 7.7148871421813965 131 125 139
-0.004542121663689613 1.7055411338806152 7.756598472595215 135 149 150
-1.0490816831588745 1.975755214691162 7.324028968811035 117 137 164
-0.6094229817390442 1.4842385053634644 7.414273262023926 149 175 202
-0.2524644136428833 0.25108471512794495 8.339288711547852 118 140 137
0.7480605840682983 0.11437901854515076 8.834819793701172 98 89 92
-0.04331102594733238 0.3460710346698761 8.365138053894043 64 65 67
-0.46195748448371887 1.9097615480422974 7.12950325012207 100 117 124
-0.38708871603012085 1.4681652784347534 7.466594696044922 40 41 61
-1.3396309614181519 1.505420207977295 8.011553764343262 174 174 162
0.03587057441473007 -0.04535789042711258 8.232783317565918 118 130 118
-0.36702629923820496 0.3852405846118927 8.487667083740234 73 73 73
0.9295791387557983 -1.0353237390518188 8.796277046203613 152 145 116
0.04781479015946388 1.6751034259796143 7.7943902015686035 116 141 145
-0.32046329975128174 0.045349352061748505 8.328182220458984 134 166 155
0.7317704558372498 1.6006455421447754 9.01461124420166 118 106 90
-0.97586989402771 1.6621850728988647 7.773018836975098 152 144 155
0.8594601154327393 -1.0435768365859985 8.81468677520752 143 133 108
-0.4881875813007355 0.01741437427699566 8.398397445678711 144 149 145
0.19701284170150757 0.9920904040336609 8.914073944091797 18 27 26
0.08265260607004166 1.760643482208252 7.6261701583862305 40 38 52
-0.5044342279434204 0.25591549277305603 8.456656455993652 96 116 123
0.14675962924957275 1.917954921722412 7.588395118713379 87 90 133
0.17842189967632294 1.8140108585357666 7.672041893005371 37 49 65
-0.4416568875312805 1.1549804210662842 8.726324081420898 119 125 123
0.6002776026725769 1.7008672952651978 8.55840015411377 120 123 116
-1.5671957731246948 1.7333343029022217 7.568535804748535 48 47 104
0.2169450968503952 1.8809868097305298 7.744057655334473 75 97 110
-0.41266417503356934 -0.18661823868751526 8.36677074432373 171 184 166
0.18165896832942963 -0.5353595614433289 8.403068542480469 133 142 137
0.736419677734375 0.8955479264259338 8.958700180053711 79 63 66
0.5608595609664917 0.3248908817768097 8.587931632995605 48 73 114
0.04502750560641289 1.4296914339065552 8.435222625732422 65 103 104
0.7120656967163086 -0.018833009526133537 8.669391632080078 121 109 109
0.4296855926513672 -0.18057958781719208 8.390088081359863 154 170 159
-0.19822975993156433 -1.0203214883804321 8.98397159576416 88 114 129
0.4146709442138672 0.31361639499664307 8.488036155700684 46 56 65
-0.5517341494560242 1.7264741659164429 7.286740303039551 135 122 139
-0.4602281451225281 -0.5540163516998291 8.559906959533691 195 175 164
0.17991356551647186 -0.2800096571445465 8.273447036743164 197 211 194
-1.0716886520385742 1.9381074905395508 7.324344158172607 57 72 67
-1.4149624109268188 1.6808983087539673 7.649311542510986 154 157 164
-0.1439065784215927 1.7075703144073486 7.616030693054199 76 75 81
-0.5070182085037231 -0.2453867495059967 8.42332935333252 73 73 81
0.040263280272483826 -0.4047236740589142 8.311079025268555 209 220 206
-0.26551878452301025 -0.6764841079711914 8.562559127807617 141 155 142
-0.3367600739002228 -0.14545325934886932 8.317039489746094 70 74 77
0.3898693919181824 0.3875082731246948 8.502695083618164 103 120 138
0.17911764979362488 1.6989506483078003 7.823880195617676 32 45 53
0.36581626534461975 -0.540305495262146 8.489603042602539 216 230 215
-0.9512978792190552 1.8873449563980103 7.283843994140625 59 76 96
0.40185606479644775 1.6594702005386353 8.471118927001953 57 60 65
0.0372387170791626 1.4067158699035645 8.419870376586914 194 195 163
0.7010172605514526 1.5918313264846802 8.972515106201172 147 141 107
0.4296855926513672 -0.18057958781719208 8.390088081359863 154 170 159
-0.5684019923210144 1.992782711982727 7.143034934997559 93 106 112
0.024566441774368286 1.9089419841766357 7.340238571166992 18 27 66
-0.44157686829566956 -0.21631817519664764 8.383821487426758 145 141 116
-0.845747709274292 1.711919903755188 7.381255149841309 158 164 180
-0.7972902059555054 1.2234233617782593 8.241446495056152 235 248 255
-0.44511353969573975 -0.525115430355072 8.51871109008789 204 179 174
-0.5518016219139099 1.7771717309951782 7.108816146850586 113 99 122
0.1543370932340622 1.7423617839813232 7.687821388244629 138 139 125
-1.634368896484375 1.5091252326965332 8.004870414733887 142 140 143
-0.13554644584655762 1.8115752935409546 7.165921211242676 105 81 97
-2.1460037231445312 1.6107395887374878 8.152397155761719 54 51 70
-0.45931804180145264 1.7873878479003906 7.02161169052124 152 139 156
-0.30719682574272156 1.3214657306671143 7.511778831481934 65 88 132
-0.4596611559391022 1.8359326124191284 7.114325523376465 75 63 101
-0.21861156821250916 1.7908198833465576 7.124574184417725 119 98 107
-0.9257553815841675 1.6688320636749268 7.771458148956299 133 131 145
0.08673807978630066 0.08526355028152466 8.276090621948242 148 171 163
0.425312340259552 1.174159049987793 9.10368824005127 47 38 41
0.8054190278053284 0.656305730342865 8.932037353515625 74 57 63
-0.2780846953392029 -0.04514903575181961 8.301733016967773 125 138 129
-0.7336341142654419 1.7662465572357178 7.177828311920166 176 168 191
-0.8405690789222717 -0.9329923391342163 9.607560157775879 80 70 68
0.3782305121421814 0.4892326593399048 8.590288162231445 59 58 74
0.9193246960639954 -0.9032776355743408 8.796463966369629 124 122 99
0.4447602331638336 1.7043861150741577 8.33945083618164 104 87 103
-0.011990967206656933 1.940632700920105 7.274807453155518 177 190 181
-0.06913593411445618 0.25437065958976746 8.330218315124512 42 56 59
-2.238906145095825 1.7653800249099731 7.911380767822266 98 112 139
-0.5449925065040588 0.39493992924690247 8.625104904174805 114 125 121
-0.8914735913276672 1.7445240020751953 7.222714900970459 131 127 150
0.4117865562438965 0.3814946115016937 8.519296646118164 95 95 93
0.05713751167058945 -0.3047422766685486 8.273528099060059 188 196 185
-0.8203108310699463 1.239261507987976 8.701529502868652 118 106 84
-0.14635728299617767 -0.2532165050506592 8.281303405761719 57 58 63
-0.09747933596372604 1.608675479888916 8.003335952758789 196 209 202
0.8926263451576233 -0.2228659689426422 8.861265182495117 119 97 99
-0.24601580202579498 1.1601554155349731 9.057466506958008 67 68 70
-0.11819599568843842 0.9479618668556213 9.115044593811035 22 22 22
-0.022098354995250702 -0.012285188771784306 8.248522758483887 150 167 159
-0.7452437281608582 1.904671311378479 7.2336883544921875 129 167 178
-0.026541048660874367 1.5824153423309326 8.22652530670166 129 132 139
0.6137857437133789 1.8542399406433105 8.543269157409668 86 95 102
-0.23847465217113495 1.431371808052063 7.565263271331787 68 80 122
0.03215808793902397 1.6645073890686035 7.805569648742676 104 113 142
-1.2011990547180176 1.5607783794403076 8.050472259521484 36 30 32
0.1259164661169052 1.3564914464950562 8.949922561645508 90 92 81
-0.5280886292457581 -0.01435948722064495 8.424598693847656 156 169 162
-0.3380148410797119 0.3215065896511078 8.420817375183105 110 95 98
0.20016616582870483 1.5339605808258057 8.535717964172363 46 58 58
-1.7832945585250854 1.8896870613098145 7.765933513641357 127 164 172
0.47303858399391174 -0.1165347769856453 8.387490272521973 163 163 137
-0.2820797860622406 1.7767093181610107 7.122391700744629 124 119 142
-1.4801833629608154 1.2606544494628906 8.846080780029297 155 131 83
-1.0498801469802856 0.9988782405853271 8.860465049743652 60 69 52
0.3779834806919098 -0.6382635831832886 8.640778541564941 183 195 173
-0.3059576749801636 1.6962151527404785 7.497208118438721 115 127 123
-0.15881656110286713 0.3757532835006714 8.399121284484863 64 54 62
-1.1079684495925903 1.8325693607330322 7.342936038970947 42 57 62
-1.7502834796905518 1.3943818807601929 8.508999824523926 166 181 210
-0.37903788685798645 0.277095228433609 8.426481246948242 73 85 83
-1.382714033126831 1.5035077333450317 8.01881217956543 33 49 49
-0.07475675642490387 -0.21084944903850555 8.260211944580078 113 110 93
-1.4135875701904297 1.4081990718841553 8.4266939163208 157 191 218
0.00512010557577014 1.3437633514404297 8.536619186401367 131 141 140
0.07117185741662979 -0.006919075734913349 8.259793281555176 157 177 168
0.7622599601745605 -0.732059895992279 8.901432991027832 117 103 100
-0.2280934900045395 1.038852572441101 9.180386543273926 28 38 39
0.5333604216575623 -0.10485782474279404 8.429586410522461 105 117 113
0.03340798616409302 -0.01746145449578762 8.280431747436523 129 140 124
-2.182584762573242 1.629833459854126 7.797740459442139 190 197 181
-0.3033166229724884 -0.2723291218280792 8.326764106750488 157 161 146
-0.24582944810390472 -0.5226937532424927 8.427308082580566 188 204 178
-0.28905877470970154 -0.6402700543403625 8.570852279663086 220 201 194
0.30945679545402527 1.5303021669387817 9.143793106079102 56 55 60
0.17144136130809784 -0.9083042740821838 9.149280548095703 60 47 41
0.09757812321186066 -0.709926187992096 8.58375358581543 164 171 164
-1.144132375717163 1.7177762985229492 7.359579086303711 114 108 122
-0.25333309173583984 1.7610466480255127 7.264440059661865 104 99 105
-0.38727492094039917 1.8037433624267578 7.014890193939209 157 142 171
-1.115710973739624 1.7355687618255615 7.322942733764648 164 172 183
-0.3487416207790375 1.9097721576690674 7.034902572631836 122 144 165
0.13106918334960938 0.1925230324268341 8.303438186645508 144 167 175
-0.20596343278884888 1.6803603172302246 7.623632907867432 26 26 34
0.822153627872467 -1.0736401081085205 8.83685302734375 121 124 103
-2.1534464359283447 1.789563536643982 7.8305182456970215 63 70 96
0.7400017976760864 1.6342952251434326 8.994866371154785 36 40 51
-1.408407211303711 1.645172357559204 7.683681964874268 56 64 83
-1.2484718561172485 1.081251859664917 8.868770599365234 146 129 103
-0.3888736069202423 1.804978370666504 7.020308971405029 157 142 171
0.5928897261619568 -0.2968674898147583 8.527996063232422 108 88 81
-0.2461187094449997 1.3613694906234741 8.471260070800781 125 167 147
-0.7216139435768127 -0.3755831718444824 8.716567039489746 112 105 112
-0.24217532575130463 1.6806457042694092 7.573397636413574 13 13 21
0.12734225392341614 -0.4931938648223877 8.370550155639648 212 224 202
