ply
format ascii 1.0
element vertex 698
property float x
property float y
property float z
property uchar red
property uchar green
property uchar blue
end_header
0.45607790350914 -0.4262736141681671 7.479696273803711 206 222 212
0.37546053528785706 -0.14549334347248077 7.271247386932373 189 206 200
-0.28115761280059814 0.003520692465826869 7.287680149078369 72 85 93
-0.06849736720323563 -0.4490201473236084 7.341160774230957 211 232 223
-0.613994836807251 -4.271353721618652 17.131208419799805 181 172 165
-1.285760521888733 1.707425594329834 6.574263572692871 95 83 131
0.4785369634628296 -0.32172688841819763 7.400452136993408 208 225 215
-0.9393832683563232 1.484620213508606 6.4480977058410645 115 113 126
-1.4581458568572998 1.7180861234664917 6.650401592254639 44 45 91
0.03977740928530693 0.13854441046714783 7.223692893981934 120 136 125
0.2785075604915619 -0.03059423342347145 7.2204813957214355 131 150 130
-0.2664639353752136 0.08787033706903458 7.290994644165039 157 173 172
0.6815432906150818 0.07774887979030609 7.705170154571533 108 105 124
-0.33614131808280945 0.015300197526812553 7.294152736663818 53 53 63
-0.5680440068244934 0.8645563125610352 8.299965858459473 65 55 54
-1.1855318546295166 1.4069621562957764 6.774166584014893 28 27 33
0.4693077802658081 -0.34808582067489624 7.422518730163574 167 177 168
0.0025787141639739275 1.7307178974151611 6.168148040771484 68 80 104
0.4523788094520569 0.17938661575317383 7.35643196105957 79 107 119
-1.0978010892868042 1.6832042932510376 6.541016578674316 128 160 185
-0.1732454150915146 -0.33395445346832275 7.296790599822998 88 91 100
-0.7825994491577148 1.5130610466003418 6.370776653289795 70 62 111
0.42786672711372375 0.313983678817749 7.414078712463379 86 114 135
-1.1966397762298584 1.7042567729949951 6.560261249542236 64 51 71
-0.10252859443426132 -0.47313740849494934 7.38060998916626 78 76 79
0.3849959671497345 0.2752268314361572 7.387369632720947 115 154 171
-0.22286337614059448 0.20807789266109467 7.307590007781982 152 169 176
0.1981770396232605 -0.277810662984848 7.206118106842041 178 195 185
0.37468743324279785 -0.11011321097612381 7.26768684387207 170 182 168
-1.0384202003479004 1.6371747255325317 6.962071418762207 202 208 222
0.4956086277961731 -0.09526368230581284 7.347666263580322 149 166 160
-0.2060621976852417 1.494692325592041 6.368310928344727 134 123 140
0.25776636600494385 -0.20078882575035095 7.193060398101807 178 198 196
0.04969735071063042 0.11701798439025879 7.223528861999512 52 67 64
-0.6259955167770386 1.497138261795044 6.346947193145752 153 171 185
-0.1605076640844345 1.5803066492080688 6.182263374328613 50 50 102
0.5092248320579529 -0.558159351348877 7.86981201171875 108 96 106
0.20478354394435883 -0.5156174302101135 7.414402961730957 211 229 215
0.027152925729751587 0.313541054725647 7.306032180786133 70 60 59
0.509017825126648 -0.16128011047840118 7.36101770401001 173 180 173
-0.3623541295528412 0.1985791027545929 7.381523609161377 55 54 70
-0.9579064249992371 1.4049540758132935 6.789776802062988 58 55 64
-0.44960537552833557 -0.12750083208084106 7.395608425140381 179 185 185
-0.9749035835266113 1.3173233270645142 6.891806602478027 43 46 55
0.3264322578907013 1.4803012609481812 6.765052318572998 116 116 108
0.02940577082335949 1.2447837591171265 6.611061096191406 65 91 128
0.7730616927146912 -0.7621631026268005 7.75425386428833 84 66 62
-0.14037758111953735 -0.09738165140151978 7.238197326660156 162 174 174
-1.2513560056686401 1.6570632457733154 6.655081748962402 133 168 190
-0.9982271194458008 1.507655143737793 6.435547351837158 50 57 101
-0.058873746544122696 1.1732113361358643 6.5406646728515625 43 70 115
-0.5054970383644104 -0.08712169528007507 7.421915054321289 143 132 126
-0.9577258229255676 1.5739011764526367 6.4654011726379395 75 88 79
0.016459695994853973 -0.06385326385498047 7.204579830169678 72 83 87
0.5971410274505615 0.26620855927467346 7.555954933166504 85 129 164
0.0066131711937487125 -0.16757552325725555 7.219809055328369 134 137 130
-3.1352665424346924 1.8496652841567993 6.1271514892578125 189 209 246
-0.23338641226291656 0.16350699961185455 7.278529644012451 138 153 158
0.3264322578907013 1.4803012609481812 6.765052318572998 116 116 108
-0.9814845323562622 -0.7847630381584167 8.327805519104004 110 95 100
0.5840336084365845 -0.14741791784763336 7.410279750823975 140 136 125
0.1868596225976944 -0.07082923501729965 7.200993537902832 183 197 182
-0.022275548428297043 -0.18180248141288757 7.220901012420654 158 159 151
0.013599580153822899 -0.44960349798202515 7.3375139236450195 202 213 207
-8.861222267150879 -4.9427313804626465 18.568870544433594 234 249 255
-0.21929237246513367 1.6766080856323242 6.239352703094482 102 120 134
-0.7361701726913452 -1.500325322151184 14.672261238098145 174 159 152
0.1405387818813324 0.33547142148017883 7.323403358459473 110 127 134
-1.1331459283828735 1.3794710636138916 6.819180011749268 14 15 19
-1.4583572149276733 1.684470295906067 6.672782897949219 58 49 76
0.5582082867622375 -0.17340810596942902 7.419697284698486 134 127 109
0.21141530573368073 -0.3433675169944763 7.286461353302002 177 192 171
0.6094092726707458 0.12408310920000076 7.4921393394470215 128 160 171
-0.04803082346916199 -0.8499437570571899 7.798457145690918 156 176 183
0.2128341794013977 -0.432934045791626 7.326815128326416 191 209 183
-0.9641603231430054 1.281082034111023 6.91303825378418 123 118 115
0.41166186332702637 0.2856005132198334 7.371272563934326 84 113 121
0.3066753149032593 0.37162670493125916 7.368095874786377 100 119 117
-1.4282207489013672 1.4746716022491455 6.5841288566589355 61 57 118
0.3222618103027344 0.34471815824508667 7.397290229797363 84 111 122
-0.013888825662434101 1.294846534729004 6.545459270477295 172 198 197
-0.11050254851579666 0.05133196711540222 7.246463775634766 149 176 171
0.6426209807395935 -0.8253097534179688 7.792929172515869 44 43 41
-1.154711127281189 1.1379172801971436 7.580042839050293 132 113 71
0.025676827877759933 -0.5988232493400574 7.503446102142334 224 242 230
-0.03858902305364609 0.4565717279911041 7.405577659606934 87 68 64
0.01069565024226904 -0.054548442363739014 7.218575954437256 53 55 54
0.05456773191690445 1.350220799446106 7.426640510559082 91 90 88
-0.4675826132297516 -0.10439379513263702 7.398448467254639 113 103 101
-0.19690130650997162 1.092189073562622 6.534200668334961 42 56 93
-1.7539019584655762 1.7231796979904175 6.7419657707214355 63 82 124
0.00817774049937725 -0.09145017713308334 7.205699443817139 42 46 45
0.39157313108444214 0.17258591949939728 7.328490257263184 139 153 166
0.0938371866941452 -0.3073163330554962 7.249432563781738 197 217 208
-0.10172871500253677 0.3215561509132385 7.323419570922852 84 74 72
0.34929579496383667 -0.5027443766593933 7.482115268707275 152 164 152
-0.28115761280059814 0.003520692465826869 7.287680149078369 72 85 93
-0.03756891191005707 1.46366286277771 6.527740955352783 58 58 68
0.11892534792423248 -0.4556381404399872 7.337100028991699 227 243 233
0.08492810279130936 -0.14394669234752655 8.244871139526367 172 183 179
-0.8171538710594177 0.9426172375679016 7.61846399307251 101 84 74
0.1332613080739975 0.13247466087341309 7.238542556762695 134 163 167
-0.9599350094795227 -0.22695274651050568 8.386701583862305 100 91 96
-0.03858902305364609 0.4565717279911041 7.405577659606934 87 68 64
-0.16713470220565796 1.6110032796859741 6.183475971221924 96 117 118
-1.7014260292053223 1.6239612102508545 6.721099853515625 130 162 183
-0.818512499332428 1.316286563873291 6.952375888824463 66 67 71
-0.24489516019821167 1.5483139753341675 6.208277225494385 87 74 120
-1.7014260292053223 1.6239612102508545 6.721099853515625 130 162 183
-1.0578089952468872 1.4266618490219116 6.836453914642334 131 137 151
-1.1524162292480469 1.2986449003219604 6.914113521575928 38 46 48
-0.1282542645931244 1.3616676330566406 6.473779201507568 68 100 149
0.3242495059967041 0.28611475229263306 7.385794162750244 120 152 177
-0.024863481521606445 -0.24011464416980743 7.228796482086182 206 223 217
0.4233868718147278 0.2648070156574249 7.388335227966309 96 119 135
0.16031377017498016 1.4576258659362793 6.773062229156494 57 54 63
-8.89737319946289 -1.18149995803833 19.1373233795166 137 164 173
0.6765716075897217 -0.9283068776130676 7.810226917266846 188 181 173
-0.4220925569534302 -0.10317246615886688 7.358206272125244 168 179 173
-0.9613053202629089 -0.24387739598751068 8.2418851852417 110 93 109
0.12909965217113495 1.1982661485671997 7.355794429779053 125 126 118
-0.48735281825065613 -0.08694794028997421 7.4131035804748535 178 178 170
-0.49901124835014343 1.561016321182251 6.271764755249023 28 39 59
-0.08777620643377304 0.9309125542640686 7.977888107299805 93 91 79
0.08948706090450287 1.4986066818237305 6.444447994232178 135 115 127
0.027814503759145737 1.4586244821548462 6.616950511932373 77 86 69
-0.16712714731693268 1.3245376348495483 6.4631853103637695 56 75 115
-0.1646759808063507 1.6866564750671387 6.193967342376709 120 151 179
-1.7049933671951294 1.5938977003097534 6.720114707946777 124 161 180
0.5111794471740723 -0.08657708019018173 7.348008155822754 70 74 75
0.09157530218362808 1.367761254310608 7.229176044464111 148 156 159
-0.45924174785614014 1.4987156391143799 6.368239879608154 124 122 143
-1.0602926015853882 1.3232141733169556 6.88282585144043 133 138 134
-0.10145077854394913 0.2564827501773834 7.302845478057861 121 142 143
0.5333388447761536 0.038260865956544876 7.375577449798584 123 123 121
0.30702701210975647 0.14776603877544403 7.264636039733887 142 172 183
-0.08448652178049088 1.3090828657150269 6.511164665222168 68 85 115
0.0013739552814513445 -0.1001804918050766 7.191410064697266 101 102 88
-1.4738025665283203 1.4793580770492554 6.614017486572266 34 39 71
-2.4759042263031006 1.5951379537582397 5.221973896026611 167 173 185
-0.3755504786968231 1.5178149938583374 6.228507995605469 169 165 179
0.13091933727264404 0.29222607612609863 7.289128303527832 101 129 143
0.7395673394203186 -0.7903921604156494 7.781846523284912 110 86 86
0.28683969378471375 -0.3428940773010254 7.305425643920898 218 231 214
-1.0023199319839478 -0.26637399196624756 8.375399589538574 93 92 97
-0.30169007182121277 0.10932133346796036 7.282829284667969 95 92 85
-1.003524899482727 0.9869213700294495 7.628828525543213 66 67 71
-0.9400989413261414 1.3194712400436401 6.895816326141357 180 184 170
-0.4675826132297516 -0.10439379513263702 7.398448467254639 113 103 101
-0.25352296233177185 1.3901591300964355 6.433779239654541 42 74 95
-0.8565002679824829 0.013234870508313179 7.8772478103637695 112 100 104
0.22855406999588013 1.3149232864379883 7.348296165466309 59 89 77
-0.13345789909362793 -0.0013055735034868121 7.227130889892578 78 88 87
-0.16611143946647644 -0.3950516879558563 7.335721492767334 224 221 214
0.22565121948719025 -0.5032026171684265 7.41340970993042 153 168 165
-0.19435225427150726 0.2685052752494812 7.330476760864258 70 76 76
-0.48371535539627075 -0.15257570147514343 7.411759376525879 168 152 136
0.3668610453605652 -0.36619994044303894 7.3585968017578125 209 230 225
-0.04900239780545235 -0.4832915663719177 7.381100177764893 110 124 125
0.7809919118881226 0.55948406457901 7.929190158843994 107 108 138
0.03240315988659859 0.9790276288986206 7.8783650398254395 28 33 29
-2.352483034133911 1.4447002410888672 4.936339378356934 189 209 246
0.6053115129470825 -0.14808662235736847 7.4521403312683105 139 127 115
-0.09481557458639145 1.1000152826309204 6.555490493774414 68 96 120
0.06678753346204758 1.0861730575561523 7.7118425369262695 24 28 29
-0.11414647847414017 0.13733521103858948 7.21600341796875 143 167 169
0.1477685570716858 0.1160367950797081 7.226149082183838 164 181 171
0.20228174328804016 1.4426201581954956 6.808758735656738 35 42 48
0.3143187463283539 0.4221822917461395 7.438740253448486 65 92 111
3.3711092472076416 -4.767918109893799 15.105466842651367 130 125 121
-1.0156941413879395 1.3036967515945435 6.887202262878418 57 64 70
0.6118752956390381 0.10638407617807388 7.475409984588623 44 45 76
-2.3644204139709473 1.5757946968078613 5.214016437530518 189 207 247
-0.14053739607334137 1.7156784534454346 6.215812683105469 97 119 117
0.21213436126708984 -0.3056647777557373 7.2640061378479 171 184 177
0.2340206652879715 0.3525831699371338 7.3528733253479 115 139 151
-1.7530770301818848 1.4388210773468018 6.7952752113342285 152 163 155
-0.1509247124195099 -0.18923428654670715 7.242281913757324 192 192 194
-0.024417154490947723 -0.21272924542427063 7.224104404449463 192 204 202
-0.24401219189167023 -0.1451718956232071 7.2662763595581055 155 152 143
0.7160171866416931 -0.8426298499107361 7.731685638427734 109 112 93
-0.30757254362106323 0.007174947299063206 7.298942565917969 73 88 83
0.07778067886829376 0.19153685867786407 7.258760452270508 128 143 146
0.3475728929042816 0.15447522699832916 7.30505895614624 110 137 148
-0.33930298686027527 1.6318371295928955 6.245611667633057 126 163 182
0.28766611218452454 -0.4105631113052368 7.346785068511963 238 249 245
-0.7968040108680725 1.149444580078125 7.657191276550293 164 160 157
-0.4389195740222931 -0.8530498147010803 8.140113830566406 133 118 125
-0.21614083647727966 -0.30438315868377686 7.294191837310791 173 152 135
-0.3490484654903412 -0.17910899221897125 7.329216480255127 176 187 171
-0.9137134552001953 1.3656572103500366 6.895571708679199 22 23 25
-0.6176256537437439 1.7256420850753784 6.33679723739624 42 40 61
-9.072885513305664 0.5466715097427368 17.448917388916016 217 215 203
-0.17800994217395782 -0.20573775470256805 7.241408348083496 172 163 156
0.11771577596664429 0.19179046154022217 7.249022960662842 122 142 149
0.4669637084007263 -0.8732690215110779 7.878014087677002 123 114 117
-0.818512499332428 1.316286563873291 6.952375888824463 66 67 71
0.6253151297569275 -0.10464152693748474 7.469496250152588 89 83 69
-1.1318714618682861 1.484079360961914 6.4959635734558105 181 173 196
0.06945542246103287 1.4676631689071655 6.673608779907227 57 67 68
-1.6471201181411743 1.5362091064453125 6.708841323852539 67 67 77
-0.016196371987462044 -0.3739975094795227 7.286231994628906 214 233 229
-1.7353912591934204 1.6103215217590332 6.741285800933838 119 164 193
0.5013084411621094 0.3140985369682312 7.474079132080078 95 102 131
-0.27658629417419434 -0.12965312600135803 7.286235809326172 184 194 186
0.07211704552173615 -0.8868008852005005 7.989057540893555 100 96 110
0.312834769487381 -0.5320026278495789 7.505107879638672 221 232 216
0.08596888184547424 -0.3568527400493622 7.272302150726318 192 208 197
-0.6447621583938599 1.5637441873550415 6.341951370239258 32 36 71
-0.12625691294670105 1.0721917152404785 6.557611465454102 27 34 63
-0.8268572092056274 1.3639793395996094 6.941055774688721 33 28 32
-0.40188512206077576 1.4702751636505127 6.466601371765137 98 98 108
0.13938233256340027 -0.4097146689891815 7.309792518615723 221 237 227
-0.12877166271209717 0.9076579809188843 7.9690260887146 38 35 42
-0.24173469841480255 1.5021730661392212 6.403716564178467 146 127 133
0.10182204097509384 1.508265495300293 6.411583423614502 136 125 142
0.6371370553970337 1.2549221515655518 7.873377323150635 126 125 105
-0.026346154510974884 -0.731423020362854 7.838947772979736 75 77 76
0.15246322751045227 -0.24516960978507996 7.227075099945068 206 220 205
0.4363413453102112 1.7172316312789917 7.095301628112793 27 50 118
-0.21101067960262299 0.16080167889595032 7.276405334472656 127 141 141
-1.043063759803772 1.2848243713378906 6.903642654418945 184 192 179
0.5711366534233093 0.33710190653800964 7.583370685577393 95 122 139
-0.2437097579240799 1.024705171585083 7.575286865234375 77 91 94
-0.1989118754863739 -0.36120831966400146 7.3253021240234375 188 180 167
-0.15885619819164276 -0.06372950971126556 7.231335639953613 174 186 174
0.11709316074848175 0.034799639135599136 7.208446979522705 123 137 138
-0.000946856860537082 0.20039331912994385 7.250463008880615 98 117 113
-0.39885416626930237 1.5167782306671143 6.242241382598877 174 171 202
0.0363948829472065 0.26808005571365356 7.2943525314331055 99 118 112
-0.03247707709670067 0.3063738942146301 7.316934108734131 117 108 93
-0.927016019821167 1.4922196865081787 6.422125816345215 179 165 198
0.5597637891769409 0.032726019620895386 7.416569709777832 112 129 123
-1.6237211227416992 1.406266212463379 6.833863735198975 155 165 164
-0.48629724979400635 1.6581709384918213 6.307244777679443 109 139 175
0.12565208971500397 1.4618616104125977 6.740968227386475 93 99 95
0.8014607429504395 -0.16630318760871887 7.803977966308594 76 62 62
-11.285687446594238 -1.8902721405029297 20.2663631439209 55 69 80
-0.39901405572891235 -0.04514295980334282 7.339659214019775 162 174 160
0.8174241185188293 -0.22604258358478546 7.8244948387146 96 75 80
-0.05884481221437454 -0.11361286789178848 7.213604927062988 87 92 86
0.6299467086791992 0.1875646561384201 7.54989767074585 42 50 71
-0.9932796955108643 0.8531991839408875 7.520502090454102 176 167 138
0.504913330078125 0.23062406480312347 7.419081687927246 29 50 79
0.0010049064876511693 -0.2433917373418808 7.232627868652344 193 208 203
0.37698137760162354 -0.48548147082328796 7.468863487243652 214 225 219
-0.9701551795005798 1.0587197542190552 7.551026344299316 56 58 57
-0.09965875744819641 1.5428738594055176 6.147172451019287 152 139 169
-0.14289461076259613 -0.5037781000137329 7.444544792175293 205 191 191
0.2487272322177887 1.4379851818084717 6.830973148345947 125 144 151
-0.11677571386098862 0.32437071204185486 7.3247785568237305 119 110 105
-0.22651104629039764 -0.15879923105239868 7.252608776092529 125 107 103
0.006658648606389761 0.08002647012472153 7.219114780426025 151 174 166
-0.3840065598487854 -0.14530156552791595 7.349203109741211 152 160 149
0.6299467086791992 0.1875646561384201 7.54989767074585 42 50 71
0.32027551531791687 -0.23763161897659302 7.275435447692871 192 219 204
-0.15793004631996155 1.6424480676651 6.2127885818481445 117 132 135
-0.265886127948761 0.054202187806367874 7.2766618728637695 112 124 124
0.11159716546535492 -0.4352585971355438 7.328217029571533 128 134 130
-0.9196670055389404 1.3337734937667847 6.891522407531738 113 120 113
-0.25624847412109375 1.850767731666565 6.439295291900635 76 75 106
-0.30579808354377747 1.772399663925171 6.256013870239258 81 69 105
0.47678911685943604 -0.15983572602272034 7.35409688949585 166 175 174
-0.266042560338974 1.7665810585021973 6.226161956787109 80 77 104
0.5279569029808044 0.17781893908977509 7.4056878089904785 104 135 155
0.6764276027679443 -0.9131789207458496 7.797450542449951 201 208 200
0.20488278567790985 -0.09984662383794785 7.213663101196289 163 177 177
-0.3048032224178314 -0.16859102249145508 7.301059722900391 65 65 67
-0.09276025742292404 1.6943883895874023 6.200993537902832 106 120 131
0.3914106488227844 0.20287060737609863 7.3383402824401855 123 146 162
0.6314696073532104 0.015118911862373352 7.487270832061768 45 46 67
-3.2032604217529297 2.862516403198242 8.211464881896973 191 202 230
0.24122574925422668 0.1901623010635376 7.285562038421631 140 160 167
-2.6927692890167236 1.6923097372055054 5.602991580963135 191 206 245
-0.07914195954799652 -0.1572924554347992 7.219996929168701 193 205 203
0.3763476312160492 0.33133864402770996 7.408048152923584 90 117 136
0.7464137673377991 0.8960508108139038 7.911128997802734 123 106 114
-0.024464692920446396 -0.46850794553756714 7.3631696701049805 232 245 238
0.5893607139587402 0.22652478516101837 7.525760173797607 84 117 158
-0.37635546922683716 0.03620251268148422 7.327718257904053 150 139 133
-0.9645921587944031 0.4330439567565918 8.417118072509766 119 107 119
-0.13512010872364044 0.2603031098842621 7.286736011505127 117 137 138
-0.16661590337753296 -0.4488716721534729 7.390440940856934 224 214 212
0.1868596225976944 -0.07082923501729965 7.200993537902832 183 197 182
-0.17116405069828033 1.1380211114883423 6.495293617248535 103 133 169
0.11084528267383575 -0.39956575632095337 7.293442249298096 215 235 226
0.3460501730442047 1.4411481618881226 6.897974967956543 80 84 95
-0.7797886729240417 1.3457300662994385 6.970723628997803 24 26 25
0.9668928980827332 -0.1543157696723938 1.2905311584472656 123 106 116
-0.16901659965515137 -0.6353428363800049 7.687972545623779 205 198 179
-0.7575171589851379 1.5187262296676636 6.362425804138184 62 50 96
0.12409102916717529 -0.8617216348648071 7.96327543258667 112 105 112
1.0375417470932007 0.875659167766571 8.3793363571167 165 226 255
-0.08686289191246033 -0.14227475225925446 7.226865768432617 88 88 88
-0.11937492340803146 -0.6945392489433289 7.869088172912598 31 35 34
0.37233418226242065 0.4776601195335388 1.9537787437438965 29 26 45
-1.0944563150405884 1.1793843507766724 7.609160900115967 49 47 48
0.21384023129940033 0.36583542823791504 7.3621063232421875 92 116 128
-0.04525706544518471 0.3241767883300781 7.313608646392822 59 57 58
0.47838294506073 0.3275916576385498 7.460022449493408 27 45 49
-0.5410077571868896 1.6797795295715332 6.316477298736572 34 54 89
-1.0364363193511963 1.37002694606781 6.885209560394287 21 20 18
-0.3201730251312256 1.6042307615280151 6.2631144523620605 99 126 156
-0.21101067960262299 0.16080167889595032 7.276405334472656 127 141 141
-5.8345561027526855 -4.864078044891357 18.06587791442871 158 149 132
-0.20841161906719208 1.0604151487350464 6.539105415344238 111 149 185
-0.21183207631111145 -0.20011745393276215 7.242392539978027 184 169 162
0.01454143412411213 1.2561427354812622 6.565501689910889 46 81 113
-0.9145517945289612 1.6316540241241455 6.460437297821045 104 114 126
0.010210213251411915 0.980885922908783 8.294073104858398 18 21 28
-1.0218043327331543 1.4351656436920166 6.627514839172363 147 157 169
0.32374441623687744 -0.03539286553859711 7.2554826736450195 127 135 124
-1.34945809841156 1.4713327884674072 6.576905250549316 165 159 171
0.04179436340928078 -0.4282870590686798 7.331377029418945 198 220 208
-0.13766638934612274 -0.027042226865887642 7.230012893676758 49 59 61
0.5505498647689819 -0.3064019978046417 7.473686695098877 149 144 124
0.12806540727615356 -0.3910250961780548 7.294137001037598 121 131 120
-11.827742576599121 -2.3307766914367676 23.007049560546875 109 161 113
0.3263266682624817 -0.39877018332481384 7.367351055145264 216 235 229
-0.1240125373005867 1.552644968032837 6.15235710144043 85 70 111
0.5404337048530579 0.03476888686418533 7.3913164138793945 121 117 106
0.2777565121650696 -0.4329048693180084 7.356032371520996 219 236 228
-0.02991994470357895 1.4514275789260864 6.569664001464844 9 9 11
0.6514538526535034 1.126130223274231 7.92467737197876 51 43 54
-0.15345852077007294 1.3974374532699585 6.481332302093506 19 24 53
-1.4319815635681152 1.5769671201705933 6.608040809631348 129 156 186
0.44039681553840637 -0.316524863243103 7.3524956703186035 178 200 188
0.5013084411621094 0.3140985369682312 7.474079132080078 95 102 131
0.0700579434633255 -0.8684284687042236 8.00413990020752 123 113 114
-0.8626142740249634 1.3093969821929932 6.930243015289307 49 52 57
-0.7118348479270935 1.513197898864746 6.3672919273376465 176 171 175
-0.7682600021362305 1.402919888496399 7.014799118041992 16 17 19
-0.33111315965652466 -0.8361368775367737 8.128643035888672 136 120 123
-0.226821631193161 0.19050170481204987 7.294827938079834 133 159 158
-0.09897524118423462 0.8619878888130188 7.987107276916504 148 151 144
-1.0156941413879395 1.3036967515945435 6.887202262878418 57 64 70
0.7245322465896606 -0.8825756907463074 7.739985942840576 91 93 88
-0.7467764019966125 1.344115972518921 7.0081071853637695 31 30 35
-0.6099115014076233 1.5464636087417603 6.307753086090088 78 69 116
0.0670713409781456 0.2972601056098938 7.285567283630371 61 62 66
-0.34289443492889404 -0.2087065726518631 7.327037811279297 178 166 154
0.29419460892677307 -0.48294785618782043 7.414719104766846 215 234 228
0.13424386084079742 -0.46359896659851074 7.35872745513916 193 204 190
-0.533471405506134 1.7063310146331787 6.323169708251953 105 131 156
0.079310841858387 -0.1259622424840927 7.204907417297363 78 82 65
-0.9281976819038391 1.5104763507843018 6.428161144256592 78 66 112
-1.3953253030776978 1.4702609777450562 6.59634256362915 152 148 165
0.25058889389038086 1.3432928323745728 7.368038654327393 67 104 86
0.19430691003799438 1.7803261280059814 6.3980712890625 38 52 113
-1.136754035949707 1.3165044784545898 6.8638787269592285 40 50 49
0.3643069863319397 1.3963335752487183 7.1408843994140625 49 55 55
0.20819267630577087 -0.4698406755924225 8.604974746704102 222 239 229
0.5567892789840698 -0.317451149225235 7.480190753936768 41 45 46
-1.139556646347046 1.1782095432281494 7.609756946563721 118 108 81
0.05739312991499901 0.0027482255827635527 7.188140392303467 118 133 128
-0.07478372752666473 1.0898311138153076 7.422607421875 160 166 132
-0.04994150251150131 1.5411514043807983 6.177407741546631 116 106 115
-0.12010861188173294 1.7465649843215942 6.197737216949463 86 99 115
-1.135728359222412 1.3160030841827393 6.8615827560424805 40 50 49
0.24552281200885773 0.22889086604118347 7.29973840713501 130 152 166
-0.026131870225071907 -0.13088317215442657 7.220653533935547 156 147 138
0.6402369737625122 -0.7569190859794617 7.807764053344727 81 68 78
0.40018728375434875 0.2847151756286621 7.374637126922607 93 117 143
-0.15541376173496246 1.614680528640747 6.15475606918335 119 155 171
-0.5754343271255493 -0.28576144576072693 7.6431803703308105 180 163 156
0.4437457025051117 0.3499975800514221 7.463261604309082 108 132 170
0.6402369737625122 -0.7569190859794617 7.807764053344727 81 68 78
0.15689876675605774 -0.5564871430397034 7.455920696258545 220 234 221
-0.1520668864250183 -0.35948845744132996 7.324009895324707 206 221 218
-1.741452693939209 1.4692487716674805 6.678291320800781 85 106 135
-0.9246650338172913 -0.7389528751373291 8.32471752166748 105 99 101
0.2489275336265564 -0.40507060289382935 7.327357292175293 220 233 216
-0.8591614365577698 1.2857025861740112 6.948811054229736 180 179 158
0.5232759118080139 1.2913448810577393 7.953512668609619 162 157 127
-0.07429330050945282 0.027162589132785797 7.217756748199463 138 152 139
-1.4356696605682373 1.6900864839553833 6.860010623931885 135 162 183
0.1024169921875 -0.501184344291687 7.382877349853516 235 248 228
0.21957635879516602 0.08493713289499283 7.232757568359375 37 49 65
-1.640357494354248 1.6566263437271118 6.700944900512695 110 133 167
-0.40592360496520996 -0.31719523668289185 7.436552047729492 197 195 183
-58.17997741699219 48.48781967163086 179.3227081298828 119 127 164
0.5057992935180664 0.26078587770462036 7.452478885650635 95 108 117
-8.543781280517578 -0.8502334952354431 18.131122589111328 237 242 248
0.5256383419036865 1.2522128820419312 7.925312519073486 61 56 50
0.7826665043830872 0.576940655708313 7.9046125411987305 110 103 137
-0.3770062029361725 0.21458108723163605 7.391061305999756 150 165 170
0.003840878838673234 1.421486496925354 6.646218299865723 20 31 49
-0.8441011309623718 -0.07362985610961914 7.851977825164795 106 95 112
-0.7809601426124573 1.5370206832885742 6.362785339355469 70 68 118
-3.198927640914917 1.956555962562561 6.372330188751221 186 209 250
0.03846979886293411 1.2154885530471802 7.369240760803223 113 158 135
-0.43673795461654663 1.5095067024230957 6.2942328453063965 130 126 141
-0.3224537670612335 0.2417449653148651 7.356965065002441 132 158 155
0.9205637574195862 -0.6129171252250671 7.983752727508545 66 58 69
-7.1951069831848145 -5.338648796081543 17.96603012084961 172 164 151
-9.199029922485352 9.686572074890137 33.339656829833984 88 74 125
-0.23960542678833008 1.4899190664291382 6.42570686340332 78 75 84
-0.2139839380979538 1.0459531545639038 7.524792671203613 81 102 107
0.2713898718357086 -0.8597397208213806 7.937426567077637 111 100 108
-0.21410657465457916 0.06756117939949036 7.258197784423828 148 167 165
0.4466402530670166 -0.45696821808815 7.495039939880371 210 212 199
-15.88673210144043 13.43316650390625 50.03205490112305 67 76 133
-0.34416496753692627 -0.03722671419382095 7.310311794281006 158 174 171
0.5374442338943481 -0.13966314494609833 7.385075092315674 173 182 165
-2.7397937774658203 1.7840238809585571 5.812950611114502 190 210 245
-1.3101236820220947 1.4756886959075928 6.5545196533203125 172 180 216
0.42880862951278687 1.3380857706069946 8.000946998596191 26 27 32
-0.013334441930055618 -0.6108182668685913 7.537232398986816 218 231 214
0.5196421146392822 -0.0748528316617012 7.362812042236328 178 176 163
-1.3065053224563599 1.6349583864212036 6.595757484436035 130 167 185
-0.35571449995040894 -0.22694772481918335 7.33005428314209 190 175 168
-0.31774023175239563 -0.15785755217075348 7.309541702270508 189 192 181
0.3647400140762329 1.588818073272705 6.715641975402832 81 99 147
-1.747522234916687 1.5155915021896362 6.705240249633789 154 222 255
-0.15639980137348175 -0.1994820237159729 7.238857746124268 76 80 89
-0.09486862272024155 -0.1558384746313095 7.220779895782471 169 185 184
0.04933331906795502 0.28109821677207947 7.27617073059082 68 68 68
-0.6255459785461426 1.589977502822876 6.331364631652832 29 46 56
-0.15298815071582794 1.7154992818832397 6.196094989776611 109 128 126
0.024256305769085884 0.46832945942878723 7.399075031280518 66 66 64
0.4965861141681671 -0.14745357632637024 7.35145902633667 59 69 61
0.2717103064060211 -0.3517308831214905 7.290696620941162 188 197 176
-0.5884653925895691 1.6954879760742188 6.339026927947998 60 76 101
-1.0218286514282227 -0.5990892052650452 10.114109992980957 187 171 158
0.6921576261520386 -0.03319334611296654 7.6845927238464355 119 107 107
0.11290106177330017 0.1533394753932953 7.232657432556152 126 140 140
-1.1853317022323608 1.298123836517334 6.885802745819092 187 191 177
0.046694956719875336 1.7029415369033813 6.149633407592773 87 102 109
0.22565121948719025 -0.5032026171684265 7.41340970993042 153 168 165
-0.1861490160226822 0.1766982078552246 7.286219120025635 156 171 164
0.47567468881607056 1.3657504320144653 7.979565143585205 49 47 48
-0.9145517945289612 1.6316540241241455 6.460437297821045 104 114 126
-0.17626671493053436 -0.1835661083459854 7.244103908538818 173 169 160
0.6152471303939819 -0.31627628207206726 7.562624454498291 84 64 65
-0.03445279225707054 0.2515740394592285 7.276914119720459 136 151 154
-0.4817317724227905 0.0264134518802166 7.402469635009766 126 108 108
-0.021029876545071602 -0.4062453508377075 7.306396961212158 242 253 245
-0.11202751100063324 1.510993242263794 6.471348762512207 112 106 118
-0.43679922819137573 1.4871587753295898 6.43343448638916 138 151 167
0.44663020968437195 -0.25700730085372925 7.358356475830078 159 173 158
0.5506218671798706 0.041944555938243866 7.397027969360352 50 56 68
0.2857254445552826 1.7936450242996216 6.690189361572266 83 162 254
0.531579315662384 0.31643322110176086 7.50718879699707 89 108 151
-0.024447636678814888 -0.5260275602340698 7.414467811584473 228 245 239
0.3027992844581604 1.7144973278045654 6.657227993011475 65 63 128
0.5597637891769409 0.032726019620895386 7.416569709777832 112 129 123
0.7006289958953857 -0.5734305381774902 7.8119072914123535 89 72 80
0.12018729001283646 1.182286024093628 7.43633508682251 95 107 103
-0.7622620463371277 1.4891912937164307 6.3753557205200195 108 94 107
0.5198326110839844 0.21521645784378052 7.425275802612305 122 149 168
-0.04195379093289375 -0.8076785802841187 7.789159774780273 42 52 53
-1.7169551849365234 1.6744166612625122 6.741212844848633 99 101 113
-1.1532238721847534 1.2809491157531738 6.909642219543457 168 175 168
0.039329785853624344 1.4664428234100342 6.628251552581787 33 37 38
0.1059713214635849 -0.7235230207443237 7.95780086517334 69 67 68
-1.0818437337875366 1.7267889976501465 6.703510284423828 106 126 150
0.10477656126022339 0.410674124956131 7.348071575164795 67 69 66
0.3974526524543762 0.24167749285697937 7.360400676727295 94 122 143
0.3062666356563568 0.5258261561393738 2.106290817260742 104 132 156
-1.5951926708221436 1.4520797729492188 6.601430416107178 107 119 131
0.23091904819011688 -0.643600583076477 7.691235065460205 186 164 151
0.08559814840555191 -0.18787521123886108 7.22117805480957 170 178 167
-0.28669247031211853 1.5350736379623413 6.200602054595947 86 75 109
0.5160061717033386 0.32710719108581543 7.507713794708252 24 31 60
-0.1250523328781128 1.0895403623580933 6.537667751312256 29 43 70
0.4838030934333801 -0.8810986280441284 7.857259273529053 112 104 115
-0.08831275254487991 1.4005392789840698 6.549971580505371 19 23 34
-0.754472017288208 1.6220320463180542 6.4080023765563965 111 127 140
-0.027069974690675735 1.1174736022949219 7.506722927093506 83 89 85
-7.088327407836914 4.502861022949219 13.307112693786621 189 197 220
0.5953521728515625 1.3495413064956665 7.9187092781066895 108 102 86
0.3475728929042816 0.15447522699832916 7.30505895614624 110 137 148
-0.954259991645813 1.4841876029968262 6.537313938140869 144 139 162
-1.6039893627166748 1.4575071334838867 6.617629528045654 102 123 128
-0.6450126767158508 1.6556237936019897 6.345674514770508 20 37 57
0.49470603466033936 0.1826898753643036 7.401528835296631 132 158 185
3.2589313983917236 -3.1099941730499268 15.154401779174805 144 136 134
-0.8146753311157227 0.8962620496749878 7.603048324584961 62 65 56
0.040682148188352585 1.528571367263794 6.238708019256592 123 118 138
0.33780211210250854 -0.37011826038360596 7.33819580078125 214 237 227
-1.106444001197815 1.4882075786590576 6.49270486831665 175 168 184
0.012761409394443035 -0.18091922998428345 7.207463264465332 63 61 64
-0.3436189293861389 0.9966974854469299 7.535503387451172 41 77 63
0.42659351229667664 0.06514293700456619 7.31432580947876 147 171 181
-0.2704371213912964 0.3016156554222107 7.353494644165039 119 139 140
-0.03810635954141617 0.2686680257320404 7.284289836883545 62 77 84
0.10045495629310608 0.35587459802627563 7.33278751373291 38 41 50
-0.1933150291442871 1.6587390899658203 6.2366509437561035 104 126 137
0.7833101153373718 -0.687433660030365 7.766029357910156 63 54 59
-0.5599744319915771 1.483669400215149 6.312386989593506 167 175 194
0.2625103294849396 0.7846132516860962 7.784791946411133 87 93 89
0.8291186094284058 -0.5992825031280518 7.7865166664123535 94 72 75
0.5920825600624084 -0.4762711524963379 7.849496364593506 71 59 61
-0.48629724979400635 1.6581709384918213 6.307244777679443 109 139 175
0.1384296417236328 1.4495986700057983 6.769902229309082 160 175 170
-0.048099927604198456 -0.020221251994371414 7.2419023513793945 125 130 124
-0.2569670081138611 -0.43744778633117676 7.434266090393066 203 188 185
-0.7990968823432922 1.2768316268920898 7.008338451385498 121 122 108
-0.0626177117228508 1.5442757606506348 6.080927848815918 75 66 111
0.11517027020454407 1.5129294395446777 6.40999174118042 91 85 99
-0.402872234582901 -0.4760670065879822 7.6444926261901855 201 188 172
-0.009930522181093693 -0.22976736724376678 7.226802825927734 73 74 76
-0.8924323320388794 1.289181113243103 6.937827110290527 176 184 163
-8.563008308410645 2.533520460128784 15.553598403930664 155 193 255
0.1987142413854599 0.3935748040676117 7.374241828918457 82 82 84
0.07280346006155014 -0.1458379328250885 7.2070770263671875 103 103 91
-0.6060391068458557 1.698952317237854 6.334273338317871 52 59 69
0.025676827877759933 -0.5988232493400574 7.503446102142334 224 242 230
-0.2260189801454544 0.1510825753211975 7.280205726623535 102 118 115
0.43169790506362915 0.5407305359840393 2.079489231109619 31 41 51
-0.8161022067070007 1.4623630046844482 6.60338020324707 53 52 58
-0.041395433247089386 1.30817449092865 6.517402172088623 66 78 118
-1.4668021202087402 1.6076672077178955 6.646116256713867 120 150 184
-0.09726698696613312 1.1846140623092651 6.512745380401611 143 178 184
-0.19870857894420624 -0.42207780480384827 10.744669914245605 176 199 191
0.24775780737400055 -0.38066771626472473 7.313830375671387 210 227 219
-0.17431266605854034 1.029894471168518 6.56472110748291 123 152 186
-1.1599493026733398 -0.18907871842384338 15.368779182434082 59 78 92
-0.6638112664222717 1.3266483545303345 6.981471538543701 12 16 19
0.4627681374549866 -0.4502902925014496 7.4990129470825195 104 121 113
0.11517027020454407 1.5129294395446777 6.40999174118042 91 85 99
0.3563726544380188 1.491738200187683 6.8270487785339355 134 135 127
-0.40435656905174255 0.017129162326455116 7.3400959968566895 137 128 129
-0.3056276738643646 1.6192967891693115 5.968474864959717 105 122 148
0.052280716598033905 -0.8278281688690186 7.970068454742432 113 94 96
0.846514105796814 -0.3285832703113556 7.815708637237549 108 97 105
0.6122974753379822 -0.004528965801000595 7.4630327224731445 132 147 150
-0.010510120540857315 1.2307742834091187 6.5577592849731445 166 190 190
0.09554175287485123 1.3545668125152588 7.343601703643799 70 75 71
-0.08653255552053452 1.0866047143936157 6.5690226554870605 23 35 75
-0.09875481575727463 1.537588119506836 6.211317539215088 101 97 112
-0.9627273082733154 0.34835800528526306 8.4130277633667 118 107 113
-0.3340231478214264 0.9848698377609253 7.6382036209106445 143 158 163
0.2731563448905945 -0.17817260324954987 7.237738132476807 166 175 156
0.24177871644496918 0.16363853216171265 7.272068023681641 144 164 173
0.22927922010421753 1.3960298299789429 7.048023700714111 189 195 193
0.3740648329257965 1.564801573753357 6.742455005645752 117 132 127
-0.14340738952159882 -0.12227431684732437 7.233696460723877 166 174 176
-0.7830798625946045 0.8866498470306396 7.617899417877197 71 75 60
0.4954417645931244 0.36102890968322754 7.512406349182129 41 45 80
0.000422454351792112 -0.1796947568655014 7.221081256866455 78 76 77
0.03977740928530693 0.13854441046714783 7.223692893981934 120 136 125
0.07161923497915268 1.55863356590271 6.129967212677002 138 128 153
-0.5751437544822693 1.5000468492507935 6.3098225593566895 135 126 155
0.13713757693767548 -0.8525471091270447 7.989180088043213 95 70 73
-0.22219617664813995 0.31116244196891785 7.3504509925842285 109 123 110
0.3296234607696533 1.4906909465789795 6.764695167541504 61 46 65
-0.21283237636089325 0.4427036941051483 7.446835517883301 118 139 132
0.5079725384712219 0.04243035987019539 7.3515543937683105 128 119 114
0.12608622014522552 -0.31103062629699707 7.2501115798950195 176 186 162
-0.03532728925347328 -0.17018334567546844 7.220538139343262 77 79 78
-1.4938619136810303 1.7201107740402222 6.628245830535889 51 71 104
0.03490777313709259 0.1037001758813858 7.189123153686523 147 165 169
-0.2631445825099945 -0.0195242241024971 7.262558460235596 145 154 151
0.5434224605560303 0.3914976119995117 7.625061511993408 68 96 135
0.47886383533477783 -0.051478248089551926 7.327836036682129 115 108 98
-0.08887206017971039 -0.4051297605037689 7.318482875823975 190 204 191
-1.1797560453414917 1.4191697835922241 5.971993446350098 83 98 117
0.6829227209091187 -0.8002336025238037 7.79241943359375 113 97 97
-0.000946856860537082 0.20039331912994385 7.250463008880615 98 117 113
0.11824814230203629 1.1752737760543823 7.468740940093994 143 156 149
0.2618989646434784 -0.013560416176915169 7.226717472076416 174 197 187
-1.0752663612365723 1.4562307596206665 6.627156734466553 169 168 182
-0.06525473296642303 1.627051830291748 6.154566287994385 116 128 144
-15.190160751342773 9.756213188171387 27.699796676635742 192 201 230
0.1466422826051712 1.1609536409378052 7.53648567199707 178 198 186
0.10260772705078125 -0.28476205468177795 7.219616413116455 178 191 165
0.0217241570353508 -0.17712432146072388 7.2251081466674805 157 150 142
-0.7355518341064453 1.3322789669036865 7.014346122741699 20 17 24
-0.6369091272354126 1.309766411781311 7.0834808349609375 81 92 114
-0.16282856464385986 0.39123690128326416 7.3884687423706055 43 54 50
-1.1524162292480469 1.2986449003219604 6.914113521575928 38 46 48
0.03201543167233467 1.4657198190689087 6.597440242767334 44 45 50
-0.03942498564720154 -0.12971951067447662 7.2126078605651855 168 170 159
-0.15780052542686462 1.198603630065918 6.497279167175293 152 174 187
0.61482173204422 -0.8435871005058289 7.827087879180908 51 44 52
0.20492345094680786 1.614723801612854 6.344446659088135 67 78 124
0.5689182281494141 -0.3980225920677185 7.693976402282715 168 140 126
-1.0671359300613403 1.141845703125 7.5909810066223145 50 59 58
0.08854587376117706 -0.5093426704406738 7.3764190673828125 151 155 154
0.3563726544380188 1.491738200187683 6.8270487785339355 134 135 127
0.3026520311832428 -0.2989131510257721 7.289837837219238 194 210 200
0.11247758567333221 1.4452606439590454 6.74910306930542 153 167 152
-0.5663390159606934 1.5287096500396729 6.282248497009277 48 49 105
0.8238148093223572 -0.9012961983680725 7.726565837860107 200 207 189
-0.14288514852523804 -0.5514851808547974 7.482746601104736 227 240 233
-1.3594127893447876 1.5485796928405762 6.795248985290527 61 63 112
0.6206045150756836 -0.8573790192604065 7.785040855407715 145 143 118
0.26061224937438965 -0.4347371459007263 7.358950614929199 116 126 128
-0.08545880019664764 0.033072080463171005 7.224370002746582 129 139 140
0.4120151400566101 -0.03163396194577217 7.301514148712158 143 151 153
-0.4811657667160034 -0.1517050564289093 7.40379524230957 168 152 136
-12.096981048583984 -7.024219512939453 19.115083694458008 205 217 239
-1.7536474466323853 1.6806889772415161 6.748652935028076 153 158 162
0.15968340635299683 -0.47278955578804016 7.359014511108398 197 207 206
-0.2704371213912964 0.3016156554222107 7.353494644165039 119 139 140
0.36105766892433167 1.127236008644104 8.045434951782227 68 52 52
0.5446544289588928 1.3693681955337524 7.953736305236816 52 51 69
0.08971712738275528 0.35322582721710205 7.317295551300049 86 86 86
-0.14212451875209808 -0.8692931532859802 7.821685314178467 106 96 104
-0.16219346225261688 -0.10380469262599945 7.218441009521484 176 192 182
-1.7039709091186523 1.6598732471466064 6.741177082061768 121 146 166
0.33812186121940613 -0.05148365721106529 7.257948875427246 158 169 165
0.10288076847791672 -0.6135530471801758 7.547468662261963 181 181 169
-0.06148236244916916 0.2374279648065567 7.270716190338135 142 163 166
-0.5320532917976379 -0.39686399698257446 8.063215255737305 98 79 81
0.8430870771408081 1.0563558340072632 8.14015007019043 158 221 255
-0.44409096240997314 1.4915395975112915 6.387087345123291 120 118 139
-0.6976755261421204 1.2816672325134277 7.138777256011963 183 195 217
0.42048168182373047 0.4133152365684509 7.512489318847656 35 40 69
-3.500054359436035 2.0679562091827393 6.739381790161133 192 212 245
0.07821444422006607 1.5414695739746094 6.234881401062012 140 123 133
-0.5425209999084473 -0.8060664534568787 8.191068649291992 124 111 118
-1.0469845533370972 1.447243332862854 6.620274543762207 168 177 182
0.27459588646888733 -0.0008839356014505029 7.240543842315674 137 157 158
0.5097273588180542 0.46492311358451843 7.68468713760376 32 40 61
-0.040434498339891434 0.059401046484708786 7.217851638793945 153 169 159
0.2879126965999603 0.33145391941070557 7.368005752563477 91 117 132
0.1052112728357315 1.2311136722564697 6.490306854248047 205 231 230
-0.03248457610607147 2.7160210609436035 11.154080390930176 22 57 125
0.19029682874679565 1.4828836917877197 6.675976276397705 138 121 129
-0.36585912108421326 1.5631427764892578 6.237273216247559 61 69 115
-0.19159778952598572 0.30589359998703003 7.3628950119018555 62 63 58
0.2301870882511139 1.4477063417434692 6.819455623626709 67 71 82
-0.2823440730571747 0.9508765339851379 7.808733940124512 78 58 47
0.004061474464833736 1.4703619480133057 6.593051910400391 57 55 56
-1.3065053224563599 1.6349583864212036 6.595757484436035 130 167 185
-0.4340989291667938 0.022721929475665092 7.367004871368408 123 115 112
0.17969021201133728 -0.5682789087295532 7.4830851554870605 149 155 151
-0.8145402073860168 1.3353618383407593 6.926088809967041 50 53 58
-0.41515424847602844 -0.1644599735736847 7.354002952575684 166 154 140
0.2717103064060211 -0.3517308831214905 7.290696620941162 188 197 176
-0.6815546154975891 1.7623448371887207 6.346628189086914 78 66 128
-0.11094935983419418 1.5165544748306274 6.466610431671143 120 116 130
-0.027324697002768517 1.4265334606170654 6.573636054992676 32 40 53
0.00784472469240427 -0.0734514445066452 7.2091875076293945 46 54 65
-0.21624867618083954 1.1914170980453491 6.466728687286377 57 97 133
0.39982137084007263 -0.4556378722190857 7.448346138000488 228 241 232
-0.17078065872192383 -0.13240844011306763 7.240463733673096 176 168 165
-1.3490880727767944 1.4646797180175781 6.608370304107666 138 126 148
0.005204358138144016 1.3542178869247437 6.547062397003174 60 94 121
0.7213210463523865 1.5464415550231934 7.621823310852051 32 55 86
0.9666152596473694 -0.7761629819869995 7.988884925842285 95 106 90
-0.30239084362983704 -0.043044593185186386 7.285655498504639 155 174 168
-0.8937678337097168 1.2958292961120605 6.922863483428955 88 105 113
0.046694956719875336 1.7029415369033813 6.149633407592773 87 102 109
0.45784518122673035 -0.21135313808918 7.334286689758301 154 165 151
0.3210607171058655 -0.2877485752105713 7.289279460906982 65 70 73
-3.151399612426758 -0.2647092342376709 26.93243980407715 76 86 77
-0.02284739539027214 0.0038317793514579535 7.19752311706543 124 138 125
0.20357488095760345 -0.07521484792232513 7.234350681304932 184 197 180
-0.06057979539036751 0.9359772205352783 7.977132320404053 90 88 75
-0.7804720997810364 0.6424322128295898 8.357712745666504 112 101 109
-0.3139907121658325 -0.3076856732368469 7.385941505432129 179 173 161
-0.322544127702713 1.4920330047607422 6.441319465637207 141 132 159
0.8035712838172913 -0.8822233080863953 7.730981826782227 99 107 94
-0.6721779704093933 1.5913355350494385 6.352223873138428 36 59 65
-0.28210964798927307 1.0847009420394897 4.727928638458252 180 165 172
-0.2037208527326584 1.6826109886169434 6.2082624435424805 121 151 175
-0.9956027269363403 1.1907601356506348 7.619387626647949 51 57 55
-1.227461338043213 1.4361752271652222 6.736346244812012 164 176 190
0.2790333330631256 -0.6108524203300476 7.624619483947754 163 170 162
0.44216257333755493 -0.1803521364927292 7.3256611824035645 152 164 160
0.7880830764770508 1.5713645219802856 8.112832069396973 72 81 148
0.22473761439323425 0.259213924407959 7.290050983428955 153 172 170
-0.5744560360908508 -0.7608539462089539 8.225278854370117 115 106 107
-1.4806684255599976 1.4503229856491089 6.630937576293945 43 51 64
-0.2964535355567932 1.5151495933532715 6.226097583770752 100 88 108
-0.7256407141685486 2.1094372272491455 7.828731060028076 104 117 125
0.559670090675354 1.6620173454284668 7.3898844718933105 18 19 49
-0.14507141709327698 0.9489919543266296 3.993379831314087 101 104 137
-2.819122314453125 1.8751024007797241 6.034639835357666 186 212 249
0.25991591811180115 1.4443180561065674 6.832240104675293 64 74 86
0.29732266068458557 1.4029384851455688 7.055802345275879 166 174 176
0.23119203746318817 0.39117878675460815 7.378404140472412 103 117 120
-0.5670477747917175 -0.7844114899635315 8.196642875671387 90 81 84
0.1714964210987091 0.013730076141655445 7.201089382171631 128 138 130
0.7799016237258911 1.62154221534729 8.08965015411377 24 45 108
-0.6807987093925476 1.5101547241210938 6.339999198913574 153 168 197
-0.4842771291732788 1.4891375303268433 6.38158655166626 153 169 185
0.24728630483150482 0.3713401257991791 7.368977069854736 44 53 60
-0.3090614676475525 -0.41469329595565796 7.364559173583984 189 175 162
0.0030539154540747404 -0.43555885553359985 7.3224334716796875 238 250 246
-0.12941280007362366 1.530828833580017 6.180713653564453 108 100 115
-0.024447636678814888 -0.5260275602340698 7.414467811584473 228 245 239
-11.837092399597168 -0.9440615773200989 18.995147705078125 111 170 114
0.37609022855758667 1.5124108791351318 6.826043128967285 142 145 126
-0.03687874227762222 1.6859782934188843 6.180698871612549 108 142 167
0.7506539821624756 0.8296566605567932 7.886643886566162 86 75 79
-1.3253828287124634 1.2541656494140625 7.099593639373779 143 147 150
0.3133590817451477 1.4795717000961304 6.7773966789245605 59 50 53
-1.1238837242126465 1.327373743057251 6.870957851409912 169 175 161
0.586989164352417 1.6822407245635986 7.515010356903076 16 49 116
-0.28659725189208984 1.0374120473861694 4.260584354400635 104 123 127
-0.2010056972503662 0.42578941583633423 7.424510955810547 101 111 102
0.2944018542766571 1.5107306241989136 6.701434135437012 32 40 51
0.09753887355327606 1.5289334058761597 6.26568603515625 135 121 138
0.2525518536567688 -0.14506535232067108 7.2512431144714355 181 204 198
