ply
format ascii 1.0
element vertex 706
property float x
property float y
property float z
property uchar red
property uchar green
property uchar blue
end_header
-0.42372092604637146 0.3254692554473877 7.333074569702148 123 150 167
-0.4687875509262085 1.4332915544509888 6.326332092285156 120 130 142
0.6954983472824097 -0.39951035380363464 7.618825912475586 96 79 85
0.16619287431240082 1.5596452951431274 6.19832181930542 102 78 100
-0.031043782830238342 -0.3556857109069824 7.1420793533325195 104 112 114
-0.05765567347407341 -0.5430554151535034 7.285004138946533 148 161 154
-0.7429109811782837 -0.6398787498474121 7.989253997802734 81 69 83
-0.6145817637443542 0.04167490452528 7.430152893066406 132 130 141
0.40755680203437805 1.643086552619934 6.8715691566467285 70 87 156
0.3591819703578949 1.4460608959197998 6.775164604187012 30 28 41
-1.2224347591400146 1.2136141061782837 6.859655380249023 233 245 245
0.3482409715652466 1.5442789793014526 6.613905906677246 104 110 124
0.24990542232990265 1.5889862775802612 6.3563551902771 35 49 86
0.5018408894538879 -0.7211942672729492 7.703278064727783 106 86 85
-1.0280669927597046 1.330678939819336 6.690974712371826 45 44 40
0.07722470164299011 1.3639895915985107 6.552432060241699 32 45 61
-0.19694387912750244 1.3878873586654663 6.308508396148682 24 34 44
0.10707175731658936 1.437204122543335 6.629517555236816 93 99 99
-1.6527880430221558 1.5485891103744507 6.482813835144043 119 164 193
-1.1970354318618774 1.1963382959365845 7.179012775421143 226 244 244
-0.16278500854969025 -0.5370039939880371 7.306693077087402 218 238 227
-0.21617081761360168 1.163334608078003 6.409692764282227 58 77 120
-0.18081042170524597 -0.6721479296684265 7.64777946472168 24 25 30
0.7374120950698853 -0.2628738582134247 7.631972789764404 78 63 66
-0.48162639141082764 0.12527379393577576 7.260495185852051 74 88 89
0.04056654870510101 1.7465753555297852 6.0937018394470215 50 51 72
0.05435115471482277 0.3035813868045807 7.150871753692627 99 100 102
0.5694195628166199 0.21008314192295074 7.338550090789795 71 89 127
-0.10304709523916245 1.004713535308838 7.841777324676514 110 110 112
0.6036374568939209 -0.5154609084129333 7.652737140655518 107 91 94
0.17760489881038666 1.4702630043029785 6.529718399047852 104 80 104
-0.150655597448349 0.48757684230804443 7.300620079040527 93 96 87
-0.36732128262519836 1.6284995079040527 6.18917179107666 116 144 165
-0.2771616280078888 0.28713133931159973 7.190373420715332 130 151 156
-0.16455961763858795 1.6501919031143188 6.126940727233887 109 150 170
-0.5687418580055237 -0.7695153951644897 7.903298854827881 124 108 119
0.1738440841436386 1.2045681476593018 7.19602632522583 55 87 102
0.5898367762565613 -0.22264830768108368 7.327816963195801 103 86 76
-0.12461316585540771 -0.19146211445331573 7.0906081199646 168 173 167
-0.018643265590071678 -0.11338569968938828 7.0701727867126465 151 152 138
0.25337550044059753 0.5512654185295105 7.367980003356934 62 60 71
0.30179673433303833 -0.24402764439582825 7.13478946685791 161 172 164
0.3956647515296936 -0.7749642729759216 7.68528413772583 125 110 115
0.276545912027359 -0.012703968212008476 7.0898284912109375 167 189 186
-0.2344280183315277 0.33609017729759216 7.203043460845947 123 131 116
-0.8876433372497559 0.8653440475463867 7.45441198348999 169 167 168
-0.2263461798429489 -0.28473180532455444 7.152924060821533 198 176 165
-0.3403358459472656 0.2661377489566803 7.214358806610107 139 157 169
0.09206518530845642 1.4517951011657715 6.58062744140625 72 80 82
-0.2902689278125763 1.6431694030761719 6.169951438903809 112 122 131
0.37763211131095886 -0.16081127524375916 7.152966499328613 160 173 163
-0.031043782830238342 -0.3556857109069824 7.1420793533325195 104 112 114
0.17161758244037628 1.3566176891326904 6.927656173706055 203 225 213
0.12817779183387756 1.1055996417999268 7.796298980712891 61 58 69
-0.25801512598991394 1.306121587753296 6.348250389099121 72 99 144
-0.6295763850212097 -0.6312718987464905 7.944551944732666 63 60 69
0.6127372980117798 -0.29162532091140747 7.395389556884766 148 125 109
0.41725823283195496 0.1419922113418579 7.193155765533447 106 125 140
0.39916324615478516 0.4863877594470978 7.404143810272217 32 28 43
-0.6556652784347534 1.4379843473434448 6.420383453369141 101 114 123
-0.36301329731941223 -0.261600524187088 7.186038970947266 180 148 133
-0.2847896218299866 0.9855950474739075 7.391435623168945 120 139 133
-0.29798898100852966 0.1676660031080246 7.148891448974609 97 82 75
-0.42246171832084656 0.0210505872964859 7.186692237854004 123 115 112
-0.12898415327072144 -0.30351805686950684 7.143099308013916 183 197 184
0.4019116163253784 0.43891847133636475 7.349939346313477 25 29 41
0.7479235529899597 -0.7795950174331665 7.537747383117676 38 38 48
0.42059361934661865 -0.6326186656951904 7.692303657531738 108 102 102
0.4762791693210602 1.570247769355774 6.943905353546143 73 99 126
-1.073100209236145 1.405427098274231 6.485404968261719 62 72 64
0.5817134380340576 0.26831671595573425 7.457858085632324 90 134 171
0.08071115612983704 0.7260663509368896 7.573448181152344 15 17 14
0.008015613071620464 1.4754010438919067 6.287548542022705 112 106 120
0.7089053988456726 1.5005544424057007 7.580689430236816 70 91 122
0.00906318612396717 1.4605553150177002 6.485865116119385 103 107 118
-0.5319651365280151 1.6078375577926636 6.210296154022217 55 69 104
-1.8555922508239746 1.7983168363571167 5.582656383514404 195 224 255
0.028790298849344254 0.5241536498069763 7.286044120788574 57 55 56
-0.2643364369869232 1.4631776809692383 6.354149341583252 88 103 106
0.6266883015632629 0.16067977249622345 7.39851188659668 64 81 107
0.15892726182937622 -0.03695289045572281 7.065728187561035 159 171 171
0.15438562631607056 0.3028436005115509 7.155179023742676 133 161 173
-0.6832596063613892 1.5231645107269287 6.213538646697998 45 54 95
-0.6073919534683228 1.0477006435394287 7.23341178894043 123 125 122
-0.7683076858520508 0.8487469553947449 7.36917781829834 152 156 133
0.7346795201301575 -0.11380074173212051 7.619717597961426 80 60 71
0.004706023260951042 1.5241131782531738 6.117212772369385 127 117 141
-0.1701040416955948 -0.10101273655891418 7.074654579162598 168 187 185
-0.1272144615650177 -0.15123118460178375 7.071593284606934 165 180 177
-0.13722507655620575 -0.5265458226203918 7.3063201904296875 112 123 119
0.18767079710960388 1.0760436058044434 7.797279357910156 51 46 53
-0.5451481938362122 -0.7120080590248108 7.927093505859375 64 64 76
0.17398867011070251 -0.5732558369636536 7.360519886016846 235 237 223
-0.07586729526519775 1.4531012773513794 6.42860746383667 52 51 59
-0.3915790319442749 0.17252296209335327 7.194878578186035 82 89 82
0.3544218838214874 1.6319730281829834 6.639443874359131 49 53 100
-0.21871894598007202 1.0522987842559814 6.431512832641602 44 49 69
0.1718529462814331 -0.4523119032382965 7.186437606811523 226 249 233
-0.45150208473205566 0.24023354053497314 7.2809271812438965 119 141 154
0.48792123794555664 -0.2401074916124344 7.2443084716796875 177 189 175
-0.03427797183394432 1.383406400680542 6.451493740081787 32 43 63
0.12849687039852142 -0.10181122273206711 7.071254253387451 142 152 143
-0.4920884072780609 0.8737207651138306 7.486443519592285 160 140 116
0.03242294862866402 1.33254075050354 6.486706256866455 60 84 120
-1.1013944149017334 1.2710286378860474 6.699860095977783 198 207 202
0.5840670466423035 -0.5163677334785461 7.657888889312744 87 73 73
0.133353129029274 0.48841506242752075 7.275373935699463 14 25 45
-0.8066917657852173 0.5709930658340454 8.030853271484375 114 96 108
0.21845576167106628 1.1886767148971558 7.3515167236328125 195 202 208
0.34967148303985596 0.43790319561958313 7.313396453857422 51 63 77
-1.4368157386779785 1.6613293886184692 6.438399791717529 22 28 52
0.17398867011070251 -0.5732558369636536 7.360519886016846 235 237 223
-0.2625283896923065 1.1338506937026978 6.393974781036377 117 150 195
0.08388366550207138 0.06859689205884933 7.064417839050293 96 107 109
-0.8133178949356079 1.3098515272140503 6.750624656677246 88 94 94
-0.262458860874176 -0.2878868579864502 7.16221284866333 193 181 169
0.6012476682662964 0.03040381520986557 7.294606685638428 134 134 132
0.24860328435897827 1.4219248294830322 6.719779014587402 64 74 86
0.7043099403381348 -0.5930997729301453 7.6058220863342285 84 78 80
-0.03475082665681839 0.4891270101070404 7.241292476654053 80 73 65
0.24577650427818298 -0.3764851987361908 7.150323390960693 213 226 216
-0.8156739473342896 -0.7167418599128723 7.988099575042725 99 97 98
-0.5960084795951843 1.414008378982544 6.5773186683654785 160 148 168
0.706787109375 1.3939472436904907 7.681087017059326 91 81 92
-0.527205228805542 1.5317825078964233 6.187533378601074 72 98 121
0.20695249736309052 0.4835101366043091 7.221810340881348 69 66 61
0.6921221613883972 -0.6823418736457825 7.62022590637207 57 57 65
0.6522745490074158 0.531474232673645 7.681334972381592 49 50 55
0.17019441723823547 -0.7501247525215149 7.739348888397217 59 50 53
0.0471770241856575 -0.13153846561908722 7.074912071228027 124 104 97
-0.1960110366344452 -0.3881276845932007 7.181174278259277 205 208 189
-0.7039884328842163 1.2182623147964478 6.98090934753418 138 146 149
0.20908473432064056 1.5204410552978516 6.382405757904053 127 119 132
-0.8799665570259094 1.4188446998596191 6.443229675292969 42 50 39
-0.8683806657791138 1.6906355619430542 6.297666072845459 86 85 103
0.2529495656490326 0.37596869468688965 7.224171161651611 99 111 111
-0.8125706315040588 -0.4636172950267792 7.986839771270752 84 71 81
0.43192631006240845 1.1105116605758667 7.743381023406982 82 81 79
0.2338222712278366 1.2233842611312866 7.42348051071167 73 88 91
-1.6156479120254517 1.4749857187271118 6.507271766662598 52 77 118
0.5041394233703613 1.3808196783065796 7.328288555145264 122 90 105
-0.30039864778518677 -0.26265794038772583 7.16412353515625 187 180 174
-1.1659504175186157 1.4075896739959717 6.513326644897461 143 145 166
-0.11981725692749023 -0.523715078830719 7.270965099334717 137 142 136
0.4186674952507019 0.4422155022621155 7.372623920440674 36 33 42
0.15385840833187103 1.515705943107605 6.2961745262146 92 81 97
-1.430676817893982 1.4432405233383179 6.392857074737549 23 35 77
0.09394194185733795 1.4871127605438232 6.3753790855407715 140 121 140
-1.1577603816986084 1.231991171836853 6.736018180847168 82 84 97
0.22774942219257355 1.6441770792007446 6.312081813812256 60 59 93
-0.11243955045938492 1.387420654296875 6.417080879211426 39 47 66
0.6518490314483643 0.2013532966375351 7.503859043121338 105 127 141
0.12323262542486191 1.579349160194397 6.153835296630859 82 79 88
-0.13469867408275604 -0.1831689029932022 7.096052169799805 90 90 82
0.7220891118049622 -0.4674575626850128 7.608022689819336 93 68 71
0.09446031600236893 0.17507624626159668 7.087646007537842 109 134 131
0.5908209681510925 1.191491723060608 7.685178756713867 59 52 60
-0.12605543434619904 0.4912789463996887 7.278205394744873 57 58 53
0.053708337247371674 1.3199464082717896 6.47249174118042 54 87 120
-0.17980001866817474 0.6836323142051697 7.71589469909668 54 63 68
-0.11356192082166672 0.4472721517086029 7.251777648925781 130 125 105
0.3544218838214874 1.6319730281829834 6.639443874359131 49 53 100
0.5279877185821533 -0.8153313994407654 7.637729167938232 87 77 75
-1.0005269050598145 1.4162131547927856 6.463844299316406 40 41 43
0.11787046492099762 1.5529065132141113 6.12501859664917 91 77 92
0.6610376238822937 0.684714674949646 7.6797614097595215 41 42 44
-0.5520776510238647 1.6285499334335327 6.206240177154541 79 90 108
-0.5834020376205444 1.6934322118759155 6.218682289123535 37 35 46
0.5027459859848022 -0.644173800945282 7.6503005027771 129 109 118
0.4464336633682251 0.41312375664711 7.365880012512207 57 65 78
0.014802300371229649 1.5489373207092285 6.065674304962158 143 134 155
-0.3926893174648285 -0.1979067325592041 7.185161113739014 179 169 160
-0.10655458271503448 0.7149820923805237 7.5921950340271 53 57 56
0.7921000123023987 -0.47454702854156494 7.569583415985107 124 122 127
0.0019413931295275688 0.8416315317153931 7.6888580322265625 38 48 49
0.6879085898399353 -0.4401119649410248 7.622509002685547 84 73 77
-0.5299539566040039 1.4781384468078613 6.19058084487915 69 66 93
0.35708683729171753 1.582758903503418 6.642329692840576 40 37 64
0.38965487480163574 -0.0627942904829979 7.15485954284668 158 176 176
0.39115777611732483 1.5463911294937134 6.711875915527344 34 35 65
-0.5583819150924683 1.651305913925171 6.204404354095459 64 88 116
-0.8226127624511719 1.4339015483856201 6.408769130706787 155 161 183
0.19558554887771606 0.29447758197784424 7.138670444488525 127 156 170
0.7108946442604065 0.639985978603363 7.673840522766113 82 77 83
-0.9544432759284973 1.314117670059204 6.707235813140869 36 41 44
-0.055896833539009094 1.7058124542236328 6.08741569519043 91 110 124
-0.3338335454463959 0.09288907051086426 7.135447978973389 126 109 101
-0.12066760659217834 -0.5048221349716187 7.254665374755859 222 207 202
-0.3464687168598175 -0.010740675032138824 7.138016700744629 52 52 60
-0.6460298895835876 0.8416929244995117 7.415269374847412 53 82 78
-0.1608014553785324 -0.5220670104026794 7.282652854919434 119 125 121
0.6214286088943481 -0.4019416570663452 7.65445613861084 91 76 71
0.19872702658176422 1.551546573638916 6.303408145904541 82 78 101
-0.6049027442932129 0.763763427734375 8.012030601501465 70 61 64
-0.5085834264755249 1.3471808433532715 6.5815205574035645 218 230 230
-1.0866756439208984 1.1949189901351929 6.999336242675781 128 151 185
-0.5293466448783875 1.4561071395874023 6.211971282958984 95 93 94
-0.31643983721733093 1.4526010751724243 6.378052234649658 77 73 87
0.5391551852226257 1.3868677616119385 7.3104567527771 73 68 64
0.7607539892196655 1.3458014726638794 7.817678451538086 28 29 47
-0.7053363919258118 1.094123125076294 7.50706148147583 168 159 154
-0.06657672673463821 -0.8477736711502075 7.577475070953369 111 130 144
0.24724943935871124 1.45127534866333 6.708747863769531 121 129 152
-0.43420299887657166 -0.18642064929008484 7.219320297241211 167 157 147
-0.7639889717102051 0.640884280204773 8.023916244506836 83 74 75
-0.383434534072876 -0.2180985063314438 7.176669597625732 167 147 136
-0.4932541847229004 -0.14194239675998688 7.252042293548584 167 154 135
0.6720404028892517 -0.26644107699394226 7.625959873199463 46 37 40
-0.772584855556488 1.1350206136703491 7.48195219039917 149 151 140
0.013106459751725197 1.408172607421875 6.518434524536133 42 51 66
0.3290785253047943 -0.0026218206621706486 7.110043525695801 129 132 137
-0.1724887490272522 0.32300248742103577 7.175836086273193 114 113 108
-0.003373425453901291 0.3403652608394623 7.152668476104736 54 47 55
-0.7177321910858154 1.110517144203186 7.008700847625732 30 32 29
-1.8543554544448853 1.7780629396438599 5.566734313964844 156 206 255
0.317790150642395 0.14845101535320282 7.129157066345215 141 175 187
0.38539108633995056 0.34588468074798584 7.2687506675720215 110 129 127
-0.313838392496109 1.2601141929626465 6.379656791687012 107 138 182
0.18383002281188965 -0.7121717929840088 7.727163314819336 67 52 57
-0.745482861995697 0.803560197353363 7.928738594055176 83 62 67
-0.007219951134175062 0.43570050597190857 7.224750518798828 44 40 37
0.24056755006313324 0.7747081518173218 7.528120517730713 107 107 95
0.09446031600236893 0.17507624626159668 7.087646007537842 109 134 131
-0.5559515357017517 1.4198205471038818 6.585458278656006 136 137 157
-0.5265133380889893 1.4980448484420776 6.165927410125732 65 61 86
-0.5509824752807617 1.5910497903823853 6.194272041320801 31 37 73
0.25544166564941406 0.5040390491485596 7.328793525695801 47 49 62
0.1165061965584755 0.20532004535198212 7.099161624908447 113 130 122
0.24577650427818298 -0.3764851987361908 7.150323390960693 213 226 216
0.5474986433982849 1.4551509618759155 7.220157146453857 48 35 63
0.5303857326507568 0.29605454206466675 7.362396240234375 83 121 166
0.7680352330207825 -0.8094865083694458 7.57396936416626 152 156 123
-0.34274566173553467 -0.8219406604766846 7.865643501281738 107 97 106
0.08472361415624619 1.4999358654022217 6.26652193069458 94 80 97
0.6520853042602539 1.3613466024398804 7.64050817489624 86 75 83
-1.1541951894760132 1.3844178915023804 6.586175441741943 107 124 134
0.37219399213790894 -0.18805231153964996 7.146317958831787 172 195 179
0.12984560430049896 1.5550792217254639 6.180954456329346 89 79 87
-0.8632579445838928 1.3974127769470215 6.4299187660217285 145 153 164
0.136590838432312 1.3628584146499634 6.853946208953857 209 229 228
0.302093505859375 1.1299065351486206 7.793647766113281 58 48 49
-0.5672178864479065 0.12753479182720184 7.350866317749023 141 165 175
-0.09116911143064499 1.51258385181427 6.166509628295898 125 121 148
0.4143839180469513 0.42822352051734924 7.369190692901611 54 60 84
-0.2977791726589203 1.4374831914901733 6.379919528961182 26 27 32
0.6066895723342896 -0.6012824773788452 7.639086723327637 116 106 105
0.5710450410842896 0.13724865019321442 7.303823471069336 119 140 167
-0.21458737552165985 0.852360725402832 7.640800476074219 58 48 49
-0.6483840346336365 1.5055373907089233 6.207554340362549 51 51 87
-0.01680467464029789 0.47661739587783813 7.243189811706543 60 51 52
0.10379952192306519 1.4636280536651611 6.546560764312744 83 71 81
-0.27713075280189514 -0.21149224042892456 7.142244815826416 172 163 154
0.0465102419257164 1.7070960998535156 6.0484161376953125 71 87 110
0.7475383281707764 -0.8390800952911377 7.56036376953125 90 97 90
-0.37740981578826904 0.22750556468963623 7.215692043304443 94 111 118
0.5420724153518677 -0.7269818782806396 7.6487884521484375 123 111 111
0.6808037161827087 1.3888559341430664 7.631899356842041 99 90 109
-0.414905309677124 -0.7227193117141724 7.874077320098877 97 91 95
0.5540921092033386 1.3901647329330444 7.323996067047119 111 106 103
0.6759700179100037 0.6922089457511902 7.6785736083984375 65 67 66
0.07225076854228973 0.343363881111145 7.1323161125183105 76 68 66
-0.6442658305168152 1.4433480501174927 6.394227504730225 146 163 170
0.7789515852928162 -0.4150455892086029 7.598535060882568 117 103 103
0.004322685766965151 0.4405252933502197 7.252101898193359 79 68 64
-0.6308839321136475 0.8069933652877808 7.929886817932129 71 57 56
0.027272837236523628 -0.2191392332315445 7.062088489532471 191 203 191
0.17861810326576233 1.4800726175308228 6.517064094543457 151 149 160
0.2920241057872772 1.2577823400497437 7.348669528961182 23 22 27
0.6858848929405212 -0.12951911985874176 7.570180892944336 125 106 100
0.4997159242630005 1.1319204568862915 7.7428669929504395 62 52 63
-0.6384254693984985 1.5664758682250977 6.224086284637451 90 103 112
-0.4761729836463928 0.013235645368695259 7.258480072021484 129 111 109
-0.46915993094444275 1.4309810400009155 6.533768653869629 144 153 170
-0.7578199505805969 0.9478862881660461 7.406026363372803 20 28 31
0.6545594334602356 1.5687153339385986 7.529784202575684 44 74 136
0.4856186807155609 1.5533504486083984 6.966891288757324 33 41 87
0.268623024225235 -0.1567949652671814 7.106220722198486 182 206 190
0.22003307938575745 -0.19229687750339508 7.104349136352539 166 178 164
-0.19205579161643982 0.411324143409729 7.249370098114014 102 109 101
-0.32429659366607666 -0.21328580379486084 7.170046329498291 109 94 97
-0.09756229817867279 1.4718654155731201 6.447910308837891 122 147 141
0.48168516159057617 -0.6240075826644897 7.663628578186035 112 104 102
0.052513957023620605 -0.5954177379608154 7.352095603942871 229 240 226
-0.7252557277679443 1.4646230936050415 6.289726734161377 150 146 173
-0.05305274575948715 0.3378584682941437 7.14787483215332 98 95 88
-0.2074400633573532 1.4717891216278076 6.316158294677734 128 113 134
0.6541262269020081 0.18206021189689636 7.482077121734619 38 52 81
-1.1554436683654785 1.2042640447616577 7.019939422607422 223 239 229
-0.441328763961792 -0.026466937735676765 7.18658447265625 102 97 91
0.6111759543418884 -0.7722995281219482 7.62125825881958 77 64 71
-0.6062663793563843 1.4305238723754883 6.393968105316162 49 50 52
0.7155844569206238 1.018620252609253 7.685520172119141 82 63 65
-0.0736144408583641 0.7602652907371521 7.6499433517456055 32 40 42
0.2519550919532776 0.15758205950260162 7.130510330200195 113 138 142
-0.5735912919044495 1.1779043674468994 6.857649326324463 222 232 255
-0.6162055730819702 1.6070419549942017 6.22933292388916 35 57 68
-0.2808019816875458 -0.42237985134124756 7.260495662689209 196 182 169
-0.41822120547294617 0.812503457069397 7.993282794952393 84 66 66
-0.24272973835468292 1.1278475522994995 6.4426422119140625 134 168 214
-1.5475049018859863 1.386364221572876 6.394495487213135 189 200 202
0.5241274833679199 0.4419874846935272 7.577956676483154 46 74 98
0.6731633543968201 0.45248591899871826 7.6716628074646 61 59 64
0.6705917716026306 0.3750215172767639 7.632122039794922 51 46 52
0.905217170715332 -0.80240797996521 7.708907127380371 95 106 100
0.20746669173240662 1.5097817182540894 6.406223297119141 105 85 96
-0.10016565024852753 -0.17691898345947266 7.075891494750977 172 183 177
0.13136310875415802 0.7454845309257507 7.555636882781982 45 47 44
0.2384522557258606 1.497867226600647 6.476820468902588 87 76 92
0.2411508709192276 1.7045470476150513 6.378717422485352 70 87 141
0.6177079081535339 -0.6829836964607239 7.6496171951293945 87 70 76
0.4517163336277008 0.33816131949424744 7.299441337585449 75 91 107
0.5786681771278381 0.2382919192314148 7.368313789367676 36 64 104
0.31222018599510193 1.3733612298965454 6.929464817047119 170 182 180
-0.516425371170044 1.625815510749817 6.198829174041748 78 110 135
-0.38747531175613403 1.4743189811706543 6.279886245727539 134 120 135
0.7220891118049622 -0.4674575626850128 7.608022689819336 93 68 71
-0.13866643607616425 0.3157597482204437 7.167779445648193 125 118 108
0.2668512761592865 1.492754578590393 6.5130934715271 134 101 120
-0.5755714178085327 1.4790534973144531 6.219913482666016 135 126 155
0.7472521066665649 -0.4096904695034027 7.624484062194824 95 86 89
0.22062397003173828 1.4668173789978027 6.610656261444092 132 139 145
0.6421563029289246 -0.5714644193649292 7.620140075683594 90 78 80
0.38319340348243713 1.5860273838043213 6.705009460449219 90 106 132
-0.040490757673978806 0.2135479897260666 7.09810209274292 134 155 158
0.5342912077903748 1.368773102760315 7.2955708503723145 122 92 104
0.6183101534843445 0.24113403260707855 7.441174507141113 100 129 163
-0.025938106700778008 0.35009241104125977 7.164849758148193 117 102 105
-1.3662694692611694 1.3748291730880737 6.693242073059082 135 131 148
-0.3849247992038727 -0.23827748000621796 7.208601474761963 172 145 128
0.26312845945358276 1.6176044940948486 6.377048969268799 40 44 91
0.44087255001068115 0.15857510268688202 7.21091890335083 144 168 172
-0.7317221760749817 1.4200104475021362 6.426227569580078 173 178 184
0.22003307938575745 -0.19229687750339508 7.104349136352539 166 178 164
-1.8092869520187378 1.8026329278945923 5.561524391174316 197 224 254
-0.0771128311753273 0.3451044261455536 7.15116548538208 80 69 67
-1.6156792640686035 1.5801903009414673 6.481331825256348 70 76 98
-0.6329773664474487 1.6495107412338257 6.225647926330566 67 71 74
0.6899627447128296 -0.41784051060676575 7.641396999359131 115 92 102
0.2309856414794922 1.4841794967651367 6.524649620056152 88 76 90
0.5839868783950806 1.0422443151474 7.7085041999816895 41 46 49
-0.5217323899269104 1.4343490600585938 6.2867631912231445 51 54 35
0.1556987166404724 0.7517580986022949 7.562682151794434 79 81 68
-0.5884495973587036 -0.6934714317321777 7.945840358734131 73 72 88
0.034223176538944244 1.540233850479126 6.0589470863342285 125 112 132
-0.5969182848930359 1.435002088546753 6.3346123695373535 150 161 181
0.035761330276727676 0.3481238782405853 7.162434101104736 105 94 88
-0.5293466448783875 1.4561071395874023 6.211971282958984 95 93 94
0.5652872323989868 1.11628258228302 7.722757339477539 44 38 48
-0.28028857707977295 0.7728806734085083 7.881195545196533 73 57 58
0.5310412049293518 1.2664450407028198 7.702359676361084 126 123 104
0.5205130577087402 -0.42504408955574036 7.405803203582764 173 147 124
-0.38671112060546875 0.23987753689289093 7.218640327453613 130 160 158
-0.7615215182304382 1.3414525985717773 6.763052940368652 11 15 14
-0.5035895109176636 1.4762073755264282 6.166990280151367 128 139 169
0.6670435667037964 0.16957691311836243 7.517779350280762 89 115 132
-0.8422589302062988 -0.5943328738212585 8.001754760742188 93 83 91
-0.6093055009841919 1.6781693696975708 6.218628883361816 101 122 165
0.3601955771446228 1.6009432077407837 6.616118907928467 85 120 126
-0.8383268713951111 0.5919411778450012 8.04165267944336 80 73 91
-1.2340725660324097 1.3635485172271729 6.605694770812988 160 166 162
-0.8562553524971008 1.4289497137069702 6.439488410949707 138 153 172
0.6366724967956543 0.19577470421791077 7.434779167175293 107 132 139
-0.043931327760219574 0.389545202255249 7.153873443603516 73 58 61
0.2200244963169098 -0.30240803956985474 7.128238201141357 212 231 225
0.573593020439148 -0.3241938650608063 7.408666133880615 158 137 120
0.7229265570640564 -0.3153614401817322 7.628604412078857 109 91 91
-0.023217564448714256 1.4796112775802612 6.357123374938965 126 118 131
0.3924849331378937 1.1382310390472412 7.768713474273682 46 46 48
-0.2882954478263855 1.46306574344635 6.34507417678833 80 82 97
-1.0403175354003906 1.2694907188415527 6.699007034301758 177 184 177
-0.7598482370376587 -0.5903688073158264 7.95733642578125 83 70 77
0.01945245824754238 1.4808224439620972 6.390286922454834 107 94 111
0.5885151624679565 1.4109324216842651 7.298948764801025 87 92 86
0.9457370042800903 -0.8483609557151794 7.760796070098877 83 96 86
-0.13644835352897644 1.4930191040039062 6.269509315490723 102 98 113
-0.37434449791908264 -0.7350273132324219 7.8802876472473145 121 109 113
0.14453625679016113 1.542528748512268 6.232914447784424 96 89 96
0.34799301624298096 0.741837203502655 7.538236141204834 21 21 19
-1.5900726318359375 1.4114274978637695 6.414117813110352 77 102 124
0.6885767579078674 -0.5408813953399658 7.6244635581970215 123 108 105
-0.09116911143064499 1.51258385181427 6.166509628295898 125 121 148
-0.12885138392448425 0.18469831347465515 7.106951713562012 110 125 122
0.08773751556873322 1.5800909996032715 6.0594940185546875 174 148 177
-0.2697991132736206 -0.3642558753490448 7.195361137390137 193 176 166
0.7644672393798828 -0.030470015481114388 7.6180243492126465 62 55 63
0.08080577105283737 1.5244864225387573 6.184998512268066 120 102 114
-0.6664530038833618 1.4178152084350586 6.580399990081787 157 146 162
-0.7082917094230652 -0.5360941886901855 7.979508876800537 85 73 75
0.6406328082084656 0.16566790640354156 7.449648857116699 120 141 160
-0.07052423804998398 0.7346100807189941 7.662071228027344 78 78 80
0.47946926951408386 -0.355428546667099 7.305089473724365 137 138 132
-0.6701482534408569 1.0668385028839111 7.203652858734131 142 134 131
-0.5363739728927612 1.521284580230713 6.17673921585083 27 50 82
0.4253699779510498 0.16421855986118317 7.190082550048828 80 98 122
-0.6350169777870178 1.427603006362915 6.413427352905273 122 135 144
0.4201888144016266 1.4310424327850342 6.966377258300781 140 141 146
0.614112377166748 0.14514726400375366 7.357776165008545 123 142 156
-1.665837049484253 1.433111310005188 6.604989528656006 183 189 175
-0.13397838175296783 1.6449459791183472 6.124423027038574 101 115 124
0.6655677556991577 -0.5908293128013611 7.626797676086426 96 85 93
-0.31445667147636414 1.4808876514434814 6.262528419494629 123 103 131
0.7352902293205261 -0.5836292505264282 7.6048102378845215 130 125 131
0.09122640639543533 0.040415577590465546 7.0585432052612305 154 172 172
-0.3745201528072357 1.4461758136749268 6.340970516204834 88 80 91
0.19962181150913239 1.513845682144165 6.374671936035156 100 77 97
-0.12041761726140976 0.30441364645957947 7.146605968475342 59 55 56
0.38808494806289673 1.032158374786377 7.814425945281982 48 45 52
0.04170249402523041 -0.7499620318412781 7.75627326965332 72 68 65
0.2164299190044403 0.41977858543395996 7.231600284576416 30 33 52
0.6967867016792297 0.6580216288566589 7.6596760749816895 55 53 56
0.16395078599452972 1.4438302516937256 6.64873743057251 137 146 161
-0.45681244134902954 1.4602068662643433 6.2994465827941895 152 160 181
0.1310349553823471 -0.5879787802696228 7.352327346801758 221 230 213
-0.30791589617729187 1.5893877744674683 6.167403221130371 75 93 117
0.4943167567253113 -0.7429449558258057 7.660932540893555 126 110 111
-0.6894556879997253 1.7422927618026733 6.312960624694824 91 82 129
-0.5715910196304321 1.6446340084075928 6.188927173614502 34 54 89
0.272636353969574 1.4472572803497314 6.731437683105469 124 129 148
-0.40865105390548706 1.4543894529342651 6.336677551269531 147 161 174
0.6605508923530579 -0.4418557584285736 7.632297515869141 113 98 101
0.6516216397285461 1.329980492591858 7.696521759033203 168 158 131
-0.7046777606010437 0.8376011252403259 7.389832496643066 102 143 145
-0.07484078407287598 1.4813302755355835 6.363983631134033 133 129 144
-0.2977916896343231 0.24675141274929047 7.176856994628906 99 113 126
0.5636001229286194 -0.21055549383163452 7.282134532928467 161 151 124
0.7521504759788513 -0.002698687370866537 7.643410682678223 69 56 65
0.1152791902422905 1.689098596572876 6.02849817276001 57 61 108
0.7617197632789612 -0.18561944365501404 7.611186981201172 101 85 95
-0.24513670802116394 1.5052250623703003 6.129430294036865 108 90 114
-0.5952823758125305 -0.7126728296279907 7.94003438949585 141 121 132
0.3974010646343231 -0.16099883615970612 7.158791542053223 165 174 171
-0.015235642902553082 1.1808167695999146 6.47277307510376 166 194 197
0.57095867395401 -0.3362371623516083 7.366664886474609 169 145 121
0.17065957188606262 1.5627235174179077 6.2388505935668945 118 101 120
-0.06689856946468353 0.9302252531051636 7.6352314949035645 44 45 40
0.5357084274291992 0.22798454761505127 7.299571514129639 78 123 156
0.17374785244464874 1.409999966621399 6.708707332611084 166 185 181
-0.1808059960603714 -0.454181045293808 7.243017673492432 106 93 102
0.36857327818870544 0.4977715313434601 7.401185989379883 54 57 88
-0.3686682879924774 -0.0920991376042366 7.194445610046387 165 184 178
-0.2437216341495514 1.3123469352722168 6.335078716278076 48 65 111
-0.020783575251698494 1.103477120399475 7.207289218902588 99 105 101
-0.5217323899269104 1.4343490600585938 6.2867631912231445 51 54 35
-1.4518681764602661 1.6505215167999268 6.427734851837158 107 115 117
0.2148170918226242 1.4967173337936401 6.455523490905762 140 118 131
-0.5679835677146912 1.6225947141647339 6.211762428283691 56 77 106
0.34687334299087524 1.5206828117370605 6.628350257873535 102 110 113
-0.03848714753985405 0.26255759596824646 7.125367641448975 62 77 84
-0.2608335614204407 1.3197444677352905 6.343202590942383 44 73 105
0.8418623805046082 -0.8702476024627686 7.548290729522705 194 205 199
0.2377455234527588 0.7920642495155334 7.526681900024414 15 22 30
-0.6677056550979614 -0.6658557653427124 7.9390549659729 80 75 79
0.27921754121780396 0.049088433384895325 7.08350944519043 108 119 115
0.6366724967956543 0.19577470421791077 7.434779167175293 107 132 139
-0.09678809344768524 1.4973318576812744 6.252196311950684 109 103 115
0.11005604267120361 1.4717477560043335 6.4450860023498535 122 107 114
-0.512565016746521 -0.05712791159749031 7.253137111663818 169 153 153
0.3482409715652466 1.5442789793014526 6.613905906677246 104 110 124
0.5652872323989868 1.11628258228302 7.722757339477539 44 38 48
-0.3010346293449402 1.4955440759658813 6.142475128173828 100 88 108
-0.743806779384613 1.4029592275619507 6.629653453826904 151 139 159
-1.10512375831604 1.3907867670059204 6.48675537109375 62 58 72
0.36743101477622986 -0.6329211592674255 7.703664779663086 68 65 72
0.23751623928546906 1.647656798362732 6.328648090362549 175 186 192
0.9336318373680115 -0.8805943727493286 7.745487213134766 195 197 173
-0.20241890847682953 0.26209014654159546 7.154779434204102 129 139 138
0.5925061702728271 1.3037554025650024 7.702695369720459 112 116 93
0.5164052248001099 -0.3699316382408142 7.341720104217529 195 178 160
0.3155977725982666 -0.7354605793952942 7.721406936645508 119 91 88
0.28331196308135986 0.41053688526153564 7.250475883483887 71 98 107
-0.29811403155326843 -0.7840924263000488 7.82382345199585 103 92 98
-0.6395984888076782 1.5643048286437988 6.2089056968688965 104 115 117
0.7095103859901428 -0.16061310470104218 7.61373233795166 82 68 67
0.09654534608125687 1.51315176486969 6.245359420776367 148 145 164
-0.30111274123191833 1.102035641670227 6.463801860809326 126 151 191
0.42890816926956177 -0.014754545874893665 6.208068370819092 47 51 62
0.6467564702033997 -0.7537363767623901 7.619269371032715 66 58 71
0.44439801573753357 1.3126389980316162 7.730687618255615 62 62 70
0.45740407705307007 0.35270360112190247 7.3352532386779785 27 35 56
0.2128116637468338 1.4447654485702515 6.686992168426514 141 150 165
0.2384522557258606 1.497867226600647 6.476820468902588 87 76 92
0.08038752526044846 -0.7151075601577759 7.7319254875183105 36 34 39
-0.45185142755508423 1.38566255569458 6.556504726409912 164 175 179
-0.41027629375457764 0.8537971377372742 7.968994617462158 60 44 45
0.02453591674566269 0.3355965316295624 7.158441066741943 53 48 52
-0.6036601662635803 1.4177765846252441 6.402472496032715 167 172 166
0.10642997920513153 0.3260706067085266 7.142322063446045 101 106 102
-0.21650059521198273 0.16861455142498016 7.11250638961792 79 86 96
0.10522663593292236 1.5242525339126587 6.192774772644043 99 83 93
0.4832841753959656 0.414462685585022 7.425706386566162 54 66 106
0.3556130826473236 1.1848593950271606 7.757474422454834 68 64 63
0.5029685497283936 1.5127898454666138 7.007955074310303 95 105 114
0.6036739945411682 1.4229480028152466 7.340117454528809 67 75 86
0.6743198037147522 -0.5713357925415039 7.604195594787598 124 115 118
0.33682361245155334 -0.7542881369590759 7.681335926055908 99 77 80
0.6852311491966248 1.5050395727157593 7.568866729736328 22 25 60
0.41470324993133545 0.38261911273002625 7.304832458496094 66 70 97
0.10950899124145508 -0.7867693305015564 7.759316921234131 76 62 59
-0.03364313393831253 0.2130669802427292 7.130486965179443 110 128 130
-0.321306049823761 1.3346967697143555 6.362827777862549 90 114 160
-0.6062663793563843 1.4305238723754883 6.393968105316162 49 50 52
0.2166784405708313 1.507392406463623 6.420862674713135 146 128 140
-0.4971511662006378 1.4313671588897705 6.498330116271973 102 96 130
0.6544409394264221 -0.47409459948539734 7.631062030792236 89 73 76
0.2044893354177475 1.2472931146621704 7.161928176879883 113 153 163
0.3319432735443115 1.4738337993621826 6.6655802726745605 134 129 125
-0.1309834122657776 1.503294587135315 6.174332618713379 127 117 142
0.0051346044056117535 -0.0727698802947998 7.066922664642334 46 54 65
0.2995581328868866 1.2064179182052612 5.90256929397583 134 133 147
0.6479646563529968 -0.6342647075653076 7.649016857147217 123 105 105
0.7619684338569641 -0.26923590898513794 7.599903106689453 102 90 94
-0.6221355199813843 -0.6043122410774231 7.94791316986084 127 112 117
0.4996328353881836 -0.17171816527843475 7.207826137542725 132 140 129
0.6788623332977295 -0.4533718526363373 7.622187614440918 125 103 105
-0.32164159417152405 1.4856630563735962 6.248530387878418 142 135 153
-0.07681996375322342 -0.7190383672714233 7.641499042510986 66 70 73
0.22307418286800385 1.63120698928833 6.288882732391357 75 80 120
-0.13820582628250122 -0.762232780456543 7.644042491912842 99 114 119
-0.32949793338775635 0.15175607800483704 7.13878059387207 105 92 83
-0.2955048084259033 1.2595442533493042 6.367464065551758 73 108 148
-0.08948227763175964 0.4751024544239044 7.260921478271484 92 87 84
0.4271644055843353 -0.7116233110427856 7.694013595581055 120 109 107
0.12487754970788956 1.4827255010604858 6.472750663757324 127 105 118
0.2687031626701355 -0.7431685924530029 7.713048458099365 117 94 102
-0.8799665570259094 1.4188446998596191 6.443229675292969 42 50 39
0.12176617234945297 1.2780420780181885 7.124351501464844 24 28 29
0.26060375571250916 1.5052049160003662 6.512729644775391 138 119 138
-0.060986485332250595 -0.24627411365509033 7.096519470214844 166 177 163
0.41599974036216736 -0.24710066616535187 7.17117166519165 170 182 172
0.45739275217056274 0.11962738633155823 7.225801944732666 105 129 133
0.1691647619009018 -0.8191639184951782 7.738934516906738 117 108 109
-0.7025172114372253 1.1072367429733276 6.969410419464111 24 28 29
-0.7378273606300354 -0.48109084367752075 7.9849653244018555 72 62 71
-0.9017168879508972 0.9134246110916138 7.3569440841674805 121 102 88
0.3584035038948059 1.6164970397949219 6.636729717254639 85 120 126
-0.10020624846220016 1.2512428760528564 6.430695533752441 48 49 44
0.595585286617279 -0.645224928855896 7.619553565979004 83 71 73
0.6027024984359741 -0.21555379033088684 7.343141555786133 146 127 120
0.1856972724199295 1.5822819471359253 6.254199028015137 64 66 107
0.4049094617366791 0.15197038650512695 7.183760166168213 106 132 149
0.3817592263221741 1.4009000062942505 7.018268585205078 133 135 124
-0.30791589617729187 1.5893877744674683 6.167403221130371 75 93 117
-0.538796603679657 1.4970558881759644 6.205242156982422 116 119 138
0.22373872995376587 0.45180371403694153 7.247761249542236 61 60 76
0.5252581238746643 -0.6755045056343079 7.651947021484375 142 122 124
0.06485239416360855 0.7521869540214539 7.564461708068848 65 71 71
-0.13337114453315735 -0.15140552818775177 7.0924601554870605 167 178 180
0.7685806751251221 -0.3981337249279022 7.63703727722168 92 81 85
-0.5078325867652893 1.4339154958724976 6.329294681549072 62 61 59
-0.6767629384994507 0.6502591371536255 8.014643669128418 95 82 89
0.33877769112586975 1.5084915161132812 6.630170822143555 53 60 70
0.7260173559188843 -0.4401182234287262 7.615607738494873 99 74 78
-0.5727482438087463 -0.617233395576477 7.9374680519104 113 99 99
-0.6656284928321838 -0.8208574652671814 7.9429521560668945 95 82 89
-0.5953518748283386 -0.2907599210739136 7.503500938415527 91 79 89
-1.1632076501846313 1.3745167255401611 6.543546676635742 51 56 59
-0.8032016158103943 1.4578526020050049 6.374604225158691 143 143 155
-0.5836772322654724 1.5834288597106934 6.226864814758301 64 84 109
0.8692485094070435 -0.8747426867485046 7.579712867736816 200 205 198
0.0042169904336333275 1.6900016069412231 6.082152366638184 107 138 167
-0.16009521484375 -0.48221778869628906 7.260900974273682 242 233 228
0.510253369808197 -0.6310319900512695 7.684710502624512 80 64 65
0.16486771404743195 -0.7636286020278931 7.743329048156738 114 90 86
-0.32500430941581726 1.2375850677490234 6.390134334564209 101 130 170
-0.7605253458023071 -0.6238726377487183 7.95214319229126 69 63 75
-0.8236201405525208 0.6580149531364441 8.07540225982666 84 71 80
0.1862463504076004 -0.7864198684692383 7.753193378448486 95 73 76
-0.2842138409614563 0.9701042771339417 7.393143177032471 108 113 117
0.40070289373397827 0.13972310721874237 7.1816325187683105 129 159 170
0.6544028520584106 -0.0945572629570961 7.418226718902588 102 84 82
-0.7680160999298096 0.8962934613227844 7.377684593200684 82 83 75
0.07409708946943283 1.3219140768051147 6.480465412139893 60 99 158
0.19935038685798645 1.1543632745742798 7.62679386138916 49 55 55
-1.1987383365631104 1.3319787979125977 6.652223110198975 184 184 184
0.5801873207092285 1.1222038269042969 7.737098217010498 82 69 76
0.6982198357582092 -0.3734969198703766 7.65642786026001 88 69 65
0.689182460308075 -0.5772075057029724 7.604190349578857 127 116 122
0.8215175271034241 -0.6477069854736328 7.587859153747559 186 185 154
0.8069460988044739 -0.7588312029838562 7.581491470336914 128 133 111
0.1727157086133957 1.5538010597229004 6.252355098724365 97 87 98
-0.4894472658634186 -0.054735101759433746 7.244052410125732 140 115 110
0.5377007126808167 -0.35510221123695374 7.342637062072754 129 108 103
-0.2725909650325775 -0.8074613213539124 7.854439735412598 97 88 89
0.56294846534729 -0.7779476046562195 7.659142971038818 84 73 81
-1.138412594795227 1.3634272813796997 6.56189489364624 32 31 36
0.5862486362457275 -0.05362547188997269 7.289967060089111 90 82 80
-0.41379305720329285 -0.2535029649734497 7.22066068649292 194 176 162
-0.6243875622749329 1.521588683128357 6.200891017913818 62 62 112
-0.3474019169807434 0.07721525430679321 7.125441551208496 98 83 78
-1.477705955505371 0.33044639229774475 6.772274494171143 214 205 196
-0.23855841159820557 1.2737330198287964 6.347218990325928 73 101 141
0.17861971259117126 1.5004611015319824 6.370301723480225 94 77 95
0.03211810439825058 1.3768075704574585 6.491863250732422 46 62 87
0.17665080726146698 -0.46424657106399536 7.2182512283325195 202 213 199
-0.03664058446884155 1.1328338384628296 6.484520435333252 60 88 135
-0.3791999816894531 0.29469969868659973 7.255023002624512 121 140 147
0.3637463450431824 -0.7400559782981873 7.698636531829834 80 73 67
-1.4255698919296265 1.5438718795776367 6.441293716430664 119 151 172
-0.103944331407547 -0.801319420337677 7.577022552490234 105 122 142
0.5216118097305298 -0.7530224323272705 7.666590690612793 100 81 85
0.645889937877655 -0.40497490763664246 7.619497299194336 64 52 62
0.2141660749912262 1.4676753282546997 6.542016506195068 153 141 155
-0.12194192409515381 -0.07095305621623993 7.078480243682861 126 138 134
0.5645737051963806 -0.5073780417442322 7.659918785095215 109 93 96
0.13594204187393188 0.6781711578369141 7.588728427886963 19 21 18
0.6470512747764587 -0.44026798009872437 7.628312110900879 90 64 67
-0.14531691372394562 1.6530205011367798 6.092249393463135 108 118 130
0.7229983806610107 -0.6592252254486084 7.611584663391113 72 71 76
0.2411186397075653 0.4531158208847046 7.2826828956604 19 25 37
-0.26467087864875793 0.220944344997406 7.152884006500244 32 32 40
-0.5398925542831421 1.437825322151184 6.292481422424316 159 171 167
0.7400052547454834 1.4968630075454712 7.650228023529053 60 92 131
0.5992401838302612 1.3874597549438477 7.457414150238037 123 107 108
-0.0007812052499502897 0.8418411612510681 7.699531555175781 39 48 45
0.2076924741268158 1.5014301538467407 6.422252655029297 112 88 104
-0.7173818349838257 -0.6558562517166138 7.926406383514404 94 87 103
0.30876028537750244 0.4743908643722534 7.329874515533447 41 47 73
0.4636352062225342 -0.5966271162033081 7.661168575286865 58 56 59
-0.01680467464029789 0.47661739587783813 7.243189811706543 60 51 52
-0.6498900055885315 1.6468180418014526 6.2357587814331055 124 151 172
0.22464297711849213 0.6001680493354797 7.432104587554932 18 18 28
-0.758375346660614 1.7172024250030518 6.270261287689209 84 75 118
-0.23095014691352844 1.4864749908447266 6.272881031036377 117 106 120
0.19398631155490875 1.5624198913574219 6.278575897216797 106 99 117
-0.1654568761587143 0.3081638216972351 7.154163360595703 48 49 54
0.678046464920044 -0.4954729974269867 7.630460262298584 118 99 105
0.5464926958084106 1.4242355823516846 7.460391998291016 111 106 103
0.20362260937690735 1.092341661453247 7.7815070152282715 34 34 36
0.7628074884414673 -0.46893182396888733 7.578711032867432 100 86 99
0.5564237236976624 0.12506866455078125 7.2754364013671875 125 161 175
-0.7030459046363831 1.2549593448638916 6.896339416503906 111 126 129
-0.7082917094230652 -0.5360941886901855 7.979508876800537 85 73 75
-0.18006615340709686 1.1002951860427856 7.211292266845703 134 135 121
0.3762637674808502 -0.7217453122138977 7.660526752471924 106 86 87
0.08203178644180298 1.3198550939559937 6.516808032989502 71 104 157
0.7296304702758789 -0.5032411217689514 7.606516361236572 92 76 77
-0.2716818153858185 -0.3823377788066864 7.216109752655029 220 225 229
0.04859762638807297 1.5532255172729492 6.0530805587768555 162 148 173
-0.18225814402103424 0.5183757543563843 7.333384037017822 40 46 42
0.3150186240673065 -0.5311664938926697 7.352764129638672 127 139 137
0.390851765871048 -0.6549718379974365 7.681161403656006 80 70 79
-0.7279349565505981 0.5170122385025024 7.977954387664795 89 84 88
-1.2303211688995361 1.320908784866333 6.619598388671875 165 171 171
-0.4894472658634186 -0.054735101759433746 7.244052410125732 140 115 110
0.5974792838096619 1.5392804145812988 7.325477600097656 98 108 110
0.11691762506961823 1.598624348640442 6.033529758453369 118 107 121
0.5195922255516052 1.3608900308609009 7.425347805023193 77 65 77
-0.6979315280914307 -0.605600118637085 7.970894813537598 82 78 77
-0.7628402709960938 -0.7503198981285095 7.997955322265625 83 78 82
0.6227092146873474 -0.7559293508529663 7.618263244628906 117 111 113
0.44203701615333557 1.1285141706466675 7.76639461517334 61 49 59
-0.08279458433389664 1.4936339855194092 6.2996602058410645 133 119 142
-0.15734915435314178 0.3284551501274109 7.209975242614746 78 64 63
-0.0788775384426117 0.012052088975906372 7.054379940032959 123 149 138
0.2869858741760254 -0.16770130395889282 7.1263556480407715 188 204 193
-0.5534344911575317 1.6141279935836792 6.208767414093018 77 96 110
-0.7113486528396606 0.8204104900360107 7.414693832397461 43 80 73
-0.39807382225990295 1.4724093675613403 6.273385524749756 152 137 158
-0.25034475326538086 1.0770244598388672 6.437081813812256 135 166 195
0.2151779979467392 1.233988642692566 7.2903947830200195 128 133 129
0.6285687685012817 -0.12156534194946289 7.341882228851318 130 120 110
0.49395859241485596 1.336790680885315 7.571737766265869 59 58 63
-0.6499772071838379 1.7165848016738892 6.220376014709473 79 79 107
0.05593879893422127 1.2915143966674805 6.483908653259277 62 89 136
0.6177846193313599 0.8898263573646545 7.687369346618652 53 48 52
-0.8053457736968994 0.6162604689598083 8.032453536987305 113 103 114
0.8101729154586792 -0.4405789077281952 7.59041166305542 106 85 84
-0.3871840536594391 1.4874011278152466 6.239249229431152 147 139 152
0.4576037526130676 -0.4944323003292084 7.481236457824707 158 147 127
0.17304456233978271 1.524455189704895 6.305377960205078 111 107 124
0.2197214812040329 0.3672623038291931 7.206311225891113 42 61 78
0.7861707210540771 -0.08943956345319748 7.610217094421387 86 69 79
0.19872702658176422 1.551546573638916 6.303408145904541 82 78 101
0.3773971199989319 -0.7509575486183167 7.70560884475708 112 96 97
-0.05237041041254997 0.5272700786590576 7.3083930015563965 79 75 72
0.7834336161613464 -0.4281158447265625 7.647874355316162 78 66 78
0.5879701375961304 -0.7965735793113708 7.643267631530762 79 69 77
-1.571720838546753 1.3694595098495483 6.512948989868164 138 140 135
0.23331351578235626 1.228139877319336 7.527828216552734 91 93 90
-0.7675521373748779 0.489384263753891 8.065858840942383 68 66 79
0.15066421031951904 1.5488348007202148 6.1854753494262695 126 109 128
-0.16317753493785858 -0.5626803636550903 7.345139503479004 229 243 228
0.09266052395105362 -0.320963978767395 7.116063594818115 189 204 185
0.4654751121997833 1.332681655883789 7.6536149978637695 72 73 78
-0.12831899523735046 1.4820702075958252 6.288620948791504 111 97 120
0.5986039042472839 -0.5280512571334839 7.649855613708496 70 60 68
0.7416578531265259 -0.2920779287815094 7.6252336502075195 83 71 71
-0.6376787424087524 -0.7345987558364868 7.923946380615234 114 105 108
0.15554913878440857 -0.009291214868426323 7.090790748596191 113 133 124
-0.7444763779640198 -0.8165309429168701 7.989348888397217 119 108 112
-0.361061692237854 0.4075045585632324 7.337010860443115 114 133 129
-0.16388840973377228 1.122814416885376 7.191792011260986 199 205 177
0.4020301103591919 -0.6911627650260925 7.670236587524414 98 96 97
0.09613846242427826 1.7693147659301758 6.040648937225342 61 62 118
0.25950926542282104 1.6656036376953125 6.38616943359375 53 86 157
-0.47402051091194153 0.2800644040107727 7.404028415679932 131 158 177
-0.36020055413246155 1.0064958333969116 6.897218704223633 20 36 25
-0.8405101895332336 0.5027416348457336 8.043106079101562 79 76 83
-1.7123253345489502 1.6586273908615112 6.588359355926514 155 158 163
0.00419929064810276 0.07784630358219147 7.073148727416992 151 174 166
0.5428423285484314 0.12180477380752563 7.253384113311768 134 164 172
0.5130702257156372 1.0664762258529663 7.722686290740967 49 50 52
-0.07954053580760956 1.5057978630065918 6.16969108581543 107 99 114
-0.5365587472915649 -0.695207953453064 7.931772708892822 101 85 88
-0.9960370659828186 1.6879984140396118 6.3256306648254395 58 51 103
0.3119770586490631 -0.7803934216499329 7.7535319328308105 112 96 97
