ply
format ascii 1.0
element vertex 703
property float x
property float y
property float z
property uchar red
property uchar green
property uchar blue
end_header
0.6064255833625793 -0.8399566411972046 7.650045394897461 145 143 118
0.2541216015815735 -0.42656049132347107 7.223296642303467 116 126 128
-0.08333561569452286 0.032161545008420944 7.073901653289795 129 139 140
0.40285781025886536 -0.030402718111872673 7.164098262786865 143 151 153
-0.4697118103504181 -0.14849087595939636 7.240319728851318 168 152 136
-1.6738603115081787 1.6193660497665405 6.497000694274902 153 158 162
0.15518786013126373 -0.4639909565448761 7.22175407409668 197 207 206
-0.26274755597114563 0.29552701115608215 7.185995578765869 119 139 140
0.35219788551330566 1.1081064939498901 7.860461711883545 68 52 52
0.5314968228340149 1.3458307981491089 7.775090217590332 52 51 69
0.08833655714988708 0.34678494930267334 7.161077976226807 86 86 86
-0.14159435033798218 -0.8510051369667053 7.671283721923828 106 96 104
-0.15861710906028748 -0.1022607758641243 7.069318771362305 176 192 182
-1.6273150444030762 1.6000875234603882 6.493220806121826 121 146 166
0.3305230736732483 -0.05021367222070694 7.120433330535889 158 169 165
0.09909158945083618 -0.6013035178184509 7.405710697174072 181 181 169
0.8228527307510376 1.0418041944503784 7.970641613006592 158 221 255
-0.4248511493206024 1.451109766960144 6.213822841644287 120 118 139
-0.6721998453140259 1.2479668855667114 6.938364028930664 183 195 217
0.4108988046646118 0.40751394629478455 7.3608551025390625 35 40 69
0.08132315427064896 1.504730463027954 6.086353302001953 140 123 133
-0.5321888327598572 -0.7857705950737 8.014937400817871 124 111 118
-1.004677653312683 1.4026098251342773 6.414422512054443 168 177 182
0.2685009837150574 -0.0006498267175629735 7.100263595581055 137 157 158
0.4980083703994751 0.4590234160423279 7.528008460998535 32 40 61
-0.03939366340637207 0.05802316591143608 7.068653583526611 153 169 159
0.28165122866630554 0.32619431614875793 7.2174391746521 91 117 132
0.18896660208702087 1.450361967086792 6.5219292640686035 138 121 129
-0.3485156297683716 1.5208122730255127 6.069284439086914 61 69 115
-0.18614476919174194 0.2999688386917114 7.198044776916504 62 63 58
0.22743061184883118 1.4168105125427246 6.663523197174072 67 71 82
-0.27289989590644836 0.9313108325004578 7.610084056854248 78 58 47
0.008118066936731339 1.4360438585281372 6.433989524841309 57 55 56
-0.42328253388404846 0.022283654659986496 7.202089309692383 123 115 112
0.17458850145339966 -0.5571408867835999 7.3436102867126465 149 155 151
-0.7837588787078857 1.2981159687042236 6.725429534912109 50 53 58
-0.40565845370292664 -0.16123782098293304 7.195169925689697 166 154 140
0.26519936323165894 -0.3452942967414856 7.1558146476745605 188 197 176
-0.10367260128259659 1.4801061153411865 6.307959079742432 120 116 130
-0.022449055686593056 1.3929712772369385 6.414944648742676 32 40 53
0.007611162960529327 -0.07235929369926453 7.0639190673828125 46 54 65
-0.20580223202705383 1.1613761186599731 6.307301044464111 57 97 133
0.39038458466529846 -0.44661444425582886 7.313756465911865 228 241 232
-0.16706715524196625 -0.13022422790527344 7.090917587280273 176 168 165
-1.2928968667984009 1.416195034980774 6.388916969299316 138 126 148
0.009218803606927395 1.3224472999572754 6.391106605529785 60 94 121
0.7058531045913696 1.5174856185913086 7.447965621948242 32 55 86
-0.295169860124588 -0.04243241623044014 7.12874698638916 155 174 168
-0.8601779937744141 1.2590978145599365 6.720142841339111 88 105 113
0.05115112289786339 1.661680817604065 5.999371528625488 87 102 109
0.3136175274848938 -0.2823530435562134 7.154438018798828 65 70 73
-0.022295895963907242 0.0034137051552534103 7.0505900382995605 124 138 125
0.19901983439922333 -0.07377638667821884 7.0932536125183105 184 197 180
-0.05808926373720169 0.9186440706253052 7.781885623931885 90 88 75
-0.7567222118377686 0.6308020949363708 8.12890338897705 112 101 109
-0.30772992968559265 -0.3015972077846527 7.233053684234619 179 173 161
-0.30765897035598755 1.4531140327453613 6.27177619934082 141 132 159
0.7863528728485107 -0.8649154901504517 7.601606845855713 99 107 94
-0.6439394950866699 1.5453150272369385 6.167879581451416 36 59 65
-0.1918192058801651 1.6392220258712769 6.046943664550781 121 151 175
-0.9598250389099121 1.159120798110962 7.392146587371826 51 57 55
-1.1778817176818848 1.390729546546936 6.519968032836914 164 176 190
0.271608829498291 -0.5982057452201843 7.484002590179443 163 170 162
0.43233251571655273 -0.17646291851997375 7.19059419631958 152 164 160
0.7686783075332642 1.5460678339004517 7.936986923217773 72 81 148
-0.5630053877830505 -0.7410765290260315 8.045397758483887 115 106 107
-1.4179242849349976 1.4008466005325317 6.404385089874268 43 51 64
-0.28159478306770325 1.474839448928833 6.062272548675537 100 88 108
-2.6539974212646484 1.781385898590088 5.737991809844971 186 212 249
0.25639066100120544 1.4137579202651978 6.676946640014648 64 74 86
0.29229411482810974 1.3743064403533936 6.896101474761963 166 174 176
0.22628729045391083 0.3846540153026581 7.2245001792907715 103 117 120
-0.5560619235038757 -0.7644677758216858 8.019341468811035 90 81 84
0.16750037670135498 0.013387340120971203 7.06014347076416 128 138 130
0.7606391310691833 1.595267415046692 7.914548873901367 24 45 108
-0.6524472832679749 1.4663199186325073 6.157083511352539 153 168 197
-0.46354150772094727 1.4482759237289429 6.206623554229736 153 169 185
0.24195414781570435 0.3652229905128479 7.216573715209961 44 53 60
-0.30230700969696045 -0.4066009819507599 7.211121559143066 189 175 162
0.001988386968150735 -0.42756038904190063 7.181653022766113 238 250 246
-0.1201958879828453 1.492130160331726 6.026176929473877 108 100 115
-0.025189748033881187 -0.5159657001495361 7.27194881439209 228 245 239
0.36968645453453064 1.481377124786377 6.674309730529785 142 145 126
-0.030000248923897743 1.6442140340805054 6.026352405548096 108 142 167
0.7331897616386414 0.818330705165863 7.725697994232178 86 75 79
-1.2728887796401978 1.2150766849517822 6.87010383605957 143 147 150
0.3086077570915222 1.448560118675232 6.625244140625 59 50 53
-1.0799732208251953 1.2870843410491943 6.65770149230957 169 175 161
0.5737980008125305 1.6512988805770874 7.348402976989746 16 49 116
-0.19502492249011993 0.41753315925598145 7.254488468170166 101 111 102
0.2904246151447296 1.4784955978393555 6.549656867980957 32 40 51
0.10015450417995453 1.4926247596740723 6.1166462898254395 135 121 138
0.24682949483394623 -0.1422850489616394 7.11238431930542 181 204 198
-1.4264206886291504 1.4220105409622192 6.369106292724609 130 156 181
-0.761716365814209 1.4551100730895996 6.226362228393555 122 96 105
-0.34397435188293457 0.28558778762817383 7.221210956573486 81 96 99
-0.022644322365522385 0.26958051323890686 7.123992443084717 126 138 136
0.04557032138109207 -0.08285395056009293 7.047830104827881 123 119 110
-1.8618943691253662 1.9373050928115845 7.767445087432861 134 165 186
0.06476470828056335 0.09038379043340683 7.068439483642578 152 176 178
0.4643101692199707 -0.396114319562912 7.342264652252197 173 164 155
-0.11891695857048035 1.3697503805160522 6.379262924194336 19 24 43
0.7961924076080322 -0.6342824101448059 7.629278659820557 66 52 49
-0.6021671891212463 1.4651432037353516 6.13563346862793 142 137 167
-0.990202009677887 1.2108452320098877 6.98998498916626 229 247 247
0.4713801443576813 0.3099271059036255 7.323312759399414 29 33 60
0.20690540969371796 -0.3001542389392853 7.127746105194092 171 184 177
0.36316901445388794 1.5489020347595215 6.593736171722412 44 61 91
-0.9205906987190247 1.293717861175537 6.676998615264893 28 38 39
0.7952850461006165 1.0776809453964233 7.952456474304199 135 131 120
-0.8478583097457886 1.2874943017959595 6.714151382446289 128 127 123
-0.026585711166262627 1.1038354635238647 6.42663049697876 133 163 199
0.43369218707084656 0.4178173840045929 7.379371166229248 24 27 42
0.7887516021728516 -0.4533068537712097 7.664076805114746 99 78 87
0.42363590002059937 0.4058144986629486 7.366832733154297 61 68 94
-0.7433448433876038 1.2625141143798828 6.812286853790283 170 174 157
-0.29356929659843445 0.3050008714199066 7.223810195922852 109 130 131
0.3736587464809418 1.4929527044296265 6.660618305206299 70 68 89
0.5594693422317505 -0.0005256435833871365 7.273500442504883 107 129 126
-0.6535033583641052 1.3873337507247925 6.240617752075195 111 108 139
0.31736356019973755 0.13086797297000885 7.134625434875488 118 143 150
-0.5328666567802429 0.40123385190963745 7.529871940612793 63 63 73
-0.2754887044429779 0.23830708861351013 7.178753852844238 151 162 146
0.040838055312633514 -0.1677282303571701 7.072198867797852 136 114 103
0.6163711547851562 -0.0802706852555275 7.344412803649902 79 66 60
-0.2864476442337036 -0.08917932212352753 7.123301029205322 141 158 148
0.6523911356925964 -0.31689852476119995 7.658154010772705 43 39 36
0.49528613686561584 0.0252938624471426 7.230471611022949 90 89 94
0.05242856591939926 1.4810547828674316 6.215236663818359 114 102 122
0.30867892503738403 -0.4962947368621826 7.308537006378174 200 212 198
-1.0440304279327393 1.6893603801727295 6.293642044067383 65 62 115
0.49602627754211426 1.518244743347168 6.974353313446045 31 36 76
-0.6655487418174744 1.4767675399780273 6.159374713897705 45 58 102
-1.0402438640594482 1.212525486946106 6.988062858581543 228 244 244
0.2960962951183319 -0.6536777019500732 7.777080535888672 112 102 111
0.28954756259918213 1.2921841144561768 7.316434383392334 46 54 57
0.6680657267570496 1.0958428382873535 7.7425665855407715 127 122 102
-0.03341281786561012 -0.49020472168922424 7.243295669555664 242 253 249
0.5610131025314331 0.2933948338031769 7.4233880043029785 31 69 114
-1.1497702598571777 1.3155871629714966 6.608725070953369 90 100 91
0.8018671274185181 -0.18479442596435547 7.69252347946167 116 96 98
0.2982982397079468 1.3094663619995117 7.215643405914307 186 201 194
0.6096817255020142 -0.04228454455733299 7.337703227996826 125 107 103
-0.7535312175750732 1.4240686893463135 6.383546829223633 140 159 174
0.09495510905981064 1.6839724779129028 5.715409278869629 84 72 122
-0.04209241271018982 1.1995495557785034 6.384806156158447 43 56 75
0.39866387844085693 -0.5169023871421814 7.431995391845703 199 210 194
-0.6191130876541138 0.8994479179382324 7.371160984039307 96 130 139
0.0076310280710458755 1.388596773147583 6.486869812011719 20 31 49
-0.12693186104297638 0.18555037677288055 7.108762264251709 110 125 122
-0.4095337986946106 1.4735933542251587 6.091678142547607 164 153 185
0.05507709085941315 0.32399648427963257 7.168886184692383 87 71 72
0.21657930314540863 1.5614866018295288 6.233480930328369 55 57 82
-0.10276159644126892 0.27518633008003235 7.129153728485107 47 48 68
-1.16493558883667 1.514846682548523 6.439997673034668 60 66 126
0.5144654512405396 -0.3487895131111145 7.350488185882568 188 172 156
0.5296307802200317 -0.4584074318408966 7.5777974128723145 145 129 113
-0.8199674487113953 1.4107224941253662 6.3953142166137695 55 56 58
0.5450543165206909 1.4024507999420166 7.2903828620910645 130 123 107
0.2731872498989105 -0.20514950156211853 7.121192932128906 195 212 204
0.09033679962158203 1.4760723114013672 6.23198127746582 131 115 141
0.2230703979730606 -0.3643088936805725 7.162591457366943 182 194 174
-0.15676617622375488 -0.44423630833625793 7.226846694946289 197 179 177
0.06286516785621643 0.5833384394645691 7.346789360046387 30 32 27
-0.20990198850631714 1.453270673751831 6.275330066680908 83 71 75
0.24657972157001495 1.3628445863723755 6.8815507888793945 202 219 209
0.36402201652526855 -0.20815487205982208 7.155793190002441 188 198 189
-0.9193412065505981 0.9348654747009277 7.3950581550598145 150 128 104
-0.0714869275689125 0.462342232465744 7.252841472625732 60 60 58
0.3015967309474945 1.4187079668045044 6.687099456787109 101 108 126
-0.13391807675361633 -0.4485844671726227 7.211239814758301 210 202 189
0.27745455503463745 -0.07087960839271545 7.1117448806762695 148 161 151
-0.06364928185939789 1.2649035453796387 6.374943733215332 168 189 194
0.2105741649866104 0.3928735554218292 7.230432510375977 26 46 44
0.2820471525192261 0.2144530713558197 7.099070072174072 134 169 188
0.6281892657279968 -0.3580996096134186 7.6635847091674805 48 36 38
0.4406743347644806 -0.7469189167022705 7.742255687713623 92 74 72
-0.6787568926811218 1.6964519023895264 6.192522048950195 65 55 108
-0.06448004394769669 -0.25642865896224976 7.078218460083008 184 197 179
0.3957764506340027 -0.47657981514930725 7.36180305480957 178 187 182
-0.5803757905960083 1.0502597093582153 7.3205461502075195 143 127 101
-0.5954811573028564 1.4807814359664917 6.126946449279785 49 53 101
-1.440691590309143 1.5419453382492065 6.434484481811523 128 163 185
0.15948151051998138 -0.5787608027458191 7.36652135848999 139 145 145
0.8037352561950684 -0.328619122505188 7.646029949188232 84 68 79
-0.2147149294614792 0.2618275582790375 7.1641387939453125 69 88 82
0.6496533155441284 0.2215692102909088 7.615113258361816 97 115 137
-0.46875110268592834 -0.12982358038425446 7.261545658111572 99 85 85
-0.08057057857513428 1.0605558156967163 6.414499282836914 23 35 75
-0.9006698131561279 1.39353609085083 6.405023097991943 144 153 160
-0.7332443594932556 1.5818023681640625 6.200283050537109 136 171 191
0.1591954082250595 0.4588693082332611 7.260685920715332 69 65 79
0.5298548340797424 0.32487165927886963 7.392913818359375 36 43 85
-0.11083654314279556 1.277014970779419 6.354598522186279 66 86 123
-1.3322573900222778 1.4560421705245972 6.350948810577393 51 59 121
-0.24544188380241394 0.22293983399868011 7.163188457489014 152 163 155
-0.08333561569452286 0.032161545008420944 7.073901653289795 129 139 140
-0.7505450248718262 1.1211496591567993 7.445112705230713 140 140 128
0.49012330174446106 -0.4519062638282776 7.433575630187988 174 163 143
0.2706657648086548 -0.15660269558429718 7.105442047119141 182 206 190
-0.10467508435249329 -0.4410025477409363 7.210209369659424 220 227 209
-1.5948482751846313 1.6430250406265259 6.430027961730957 75 101 124
0.6033304929733276 -0.395574688911438 7.630712985992432 64 46 44
0.7075095772743225 -0.11837974935770035 7.690288066864014 45 37 50
0.5594693422317505 -0.0005256435833871365 7.273500442504883 107 129 126
-0.300340473651886 1.6181172132492065 6.074884414672852 120 150 178
0.6672096252441406 -0.42664915323257446 7.68172550201416 80 65 72
0.1235271692276001 -0.470672070980072 7.2299885749816895 229 241 239
0.3307104706764221 -0.3769051730632782 7.202897071838379 203 222 220
0.792414665222168 -0.29203009605407715 7.669268608093262 90 65 69
0.3447709083557129 -0.7470847964286804 7.7537431716918945 116 102 101
0.2175031155347824 0.7716135382652283 7.532919883728027 68 65 56
0.44030460715293884 -0.6571745872497559 7.750568389892578 119 102 110
0.6596657037734985 0.2736561596393585 7.654271602630615 24 22 35
0.11882901936769485 0.20590540766716003 7.097820281982422 113 130 122
-1.5962210893630981 1.6187584400177002 6.474396228790283 75 84 89
0.2091420739889145 -0.47044840455055237 7.239316940307617 208 220 216
-0.261466920375824 1.0046393871307373 7.327422618865967 43 80 63
-0.3749004304409027 -0.18619614839553833 7.189359664916992 174 164 155
-0.4846627712249756 -0.11651571094989777 7.254899501800537 165 151 140
-0.1508263647556305 0.9971100091934204 6.4049072265625 70 94 118
-0.18458878993988037 0.4755419194698334 7.294343948364258 92 103 97
-0.4181177020072937 -0.041953373700380325 7.209633827209473 76 80 83
-0.7733022570610046 1.6970328092575073 6.229471206665039 83 81 121
-0.572243332862854 1.4339022636413574 6.172085762023926 43 45 42
0.47750189900398254 0.10297581553459167 7.211935997009277 87 112 116
0.2055685967206955 1.4345669746398926 6.646503448486328 141 151 163
-0.4002803862094879 1.4864118099212646 6.318670272827148 151 133 147
0.5610131025314331 0.2933948338031769 7.4233880043029785 31 69 114
-0.32495248317718506 -0.18975749611854553 7.1509809494018555 107 98 89
-0.7212361693382263 -0.866689145565033 8.078906059265137 121 105 105
0.13856683671474457 1.7574851512908936 6.010873317718506 41 67 124
-0.29753416776657104 0.24833005666732788 7.188055515289307 99 113 126
-0.2761073708534241 0.050678156316280365 7.12540864944458 157 165 168
0.3331137001514435 1.5123997926712036 6.538539409637451 136 139 130
0.5460826754570007 -0.8794280290603638 7.684555530548096 205 193 193
0.17458850145339966 -0.5571408867835999 7.3436102867126465 149 155 151
0.43233251571655273 -0.17646291851997375 7.19059419631958 152 164 160
0.11392126232385635 1.4928276538848877 6.257901191711426 135 133 144
-1.019208312034607 1.3946881294250488 6.423159599304199 58 59 79
0.06245480105280876 1.489403486251831 6.166691303253174 151 128 148
0.8173035979270935 -0.17920006811618805 7.673421382904053 113 101 103
-0.33606597781181335 -0.11614517867565155 7.140776634216309 175 191 188
0.010626645758748055 -0.45486927032470703 7.21042013168335 236 251 244
-0.9518766403198242 1.421476125717163 6.402406215667725 162 165 180
-0.1314053237438202 0.9939027428627014 7.692296028137207 79 78 83
0.0863025113940239 1.7468727827072144 5.958159446716309 59 57 97
0.017042437568306923 1.6384721994400024 5.9531731605529785 97 115 125
0.03768080472946167 0.2031899243593216 7.074051380157471 107 120 111
-0.2147299349308014 0.24074262380599976 7.156175136566162 155 172 166
-0.6622903347015381 1.4062012434005737 6.383561611175537 57 58 60
-0.26647326350212097 0.2107815444469452 7.155756950378418 93 90 85
0.3628522455692291 0.39367201924324036 7.309342861175537 70 99 115
0.10333272069692612 1.7564101219177246 5.943770885467529 95 83 133
0.20924046635627747 0.748892068862915 7.56403923034668 77 84 66
0.776936948299408 -0.12491252273321152 7.652999401092529 69 54 57
-1.572670578956604 1.4554799795150757 6.441704273223877 38 62 100
-0.6683329939842224 1.4181851148605347 6.386704921722412 150 169 184
-0.2083291858434677 1.4427324533462524 6.317967414855957 55 55 67
0.7826873660087585 -0.14344239234924316 7.650949001312256 132 111 110
0.7429535984992981 -0.46418219804763794 7.6944475173950195 102 91 99
0.5666924715042114 1.4134202003479004 7.338925838470459 94 93 89
0.2220350205898285 -0.19209446012973785 7.103842258453369 166 178 164
0.7684013843536377 -0.7736769914627075 7.629513740539551 145 148 121
0.21466666460037231 0.08353555202484131 7.090175151824951 37 49 65
-0.058610398322343826 -0.5437501072883606 7.3053083419799805 148 161 154
-0.38262009620666504 1.7370811700820923 6.112497806549072 72 62 112
-0.009500675834715366 0.0751601904630661 7.052745819091797 153 166 159
0.607844889163971 0.20759280025959015 7.398280620574951 119 152 183
0.26607686281204224 1.2808698415756226 7.315395832061768 152 167 160
-1.6774978637695312 1.3817492723464966 6.476248741149902 152 165 174
-1.091121792793274 1.3869695663452148 6.616501331329346 151 164 173
-0.5531237721443176 1.715876579284668 6.188825607299805 70 66 103
0.5988752245903015 -0.7465997934341431 7.683801174163818 66 57 62
0.48922547698020935 -0.3916662633419037 7.352297782897949 173 156 136
-0.42899802327156067 -0.03684039041399956 7.199828147888184 171 171 169
0.6208049654960632 0.10459305346012115 7.377704620361328 110 112 133
-0.5095348954200745 1.4597529172897339 6.118206977844238 69 66 93
0.3377697169780731 1.4549401998519897 6.665706157684326 53 48 55
0.35345596075057983 1.6337969303131104 6.573765754699707 69 95 146
0.36590927839279175 1.3578580617904663 7.075033187866211 61 56 63
0.7696074843406677 -0.5068627595901489 7.658420562744141 128 109 111
-0.37240883708000183 0.06132921949028969 7.177687644958496 126 111 108
-0.29434284567832947 0.26635995507240295 7.2067999839782715 123 128 124
0.6293400526046753 -0.7254015803337097 7.679958343505859 110 104 108
0.7771757245063782 -0.10556471347808838 7.645699501037598 97 91 93
0.24217861890792847 -0.32738861441612244 7.145279407501221 183 192 189
-0.866771936416626 -0.5034146904945374 8.12856674194336 105 93 97
0.008134976029396057 0.49623602628707886 7.283829212188721 76 59 65
-1.1412990093231201 1.3131171464920044 6.6191816329956055 180 186 174
0.15180306136608124 0.16304169595241547 7.087429046630859 118 136 136
0.5370239019393921 0.310594379901886 7.378026962280273 97 135 174
-0.01537011843174696 1.6024320125579834 5.993538856506348 111 150 179
0.7227694988250732 1.4574030637741089 7.668490409851074 68 89 110
-0.6474699378013611 1.2294985055923462 6.9116950035095215 99 110 130
0.3589198887348175 1.5556821823120117 6.565401077270508 81 99 147
0.665190577507019 -0.594379723072052 7.682464122772217 96 85 93
0.24016551673412323 0.5109335780143738 7.3412652015686035 24 21 30
-0.19184501469135284 1.5351152420043945 6.026100158691406 55 72 124
0.6399251818656921 -0.1597842276096344 7.38057279586792 64 52 64
-0.023058690130710602 0.08799100667238235 7.075951099395752 123 145 132
-1.440691590309143 1.5419453382492065 6.434484481811523 128 163 185
-0.9659069180488586 1.4868898391723633 6.252010345458984 61 67 117
-0.41211122274398804 0.14838950335979462 7.213842868804932 70 69 65
-0.169753298163414 0.3662823736667633 7.213212013244629 55 54 52
-0.3060421347618103 -0.1829594075679779 7.151612281799316 156 156 148
-0.42201995849609375 1.4656555652618408 6.160826683044434 138 133 153
-1.1521236896514893 1.3495103120803833 6.544791221618652 53 60 52
0.15323425829410553 0.04160516709089279 7.059138298034668 144 165 160
-0.9101054668426514 -0.7959633469581604 8.128722190856934 97 88 89
0.1258469820022583 -0.603671669960022 7.418636798858643 167 162 158
0.530721127986908 0.06389967352151871 7.257351875305176 133 134 136
0.49021047353744507 0.2842353284358978 7.304625511169434 93 105 121
-0.002157880924642086 0.8975068926811218 7.760420322418213 15 27 23
-0.04386906325817108 1.6675331592559814 6.042119979858398 122 147 167
0.3781384825706482 1.5243438482284546 6.6675028800964355 48 53 73
0.027247246354818344 1.325028896331787 6.427247047424316 59 85 122
-0.00853075459599495 -0.18847905099391937 7.074947834014893 66 68 63
-0.04394672438502312 1.4188281297683716 6.378105163574219 98 115 105
0.32450127601623535 1.4595425128936768 6.613341331481934 61 46 65
0.7112279534339905 -0.652690052986145 7.660589694976807 118 112 112
0.16184835135936737 1.1950607299804688 7.223776340484619 195 198 179
0.35789328813552856 1.4356826543807983 6.741931915283203 44 49 68
0.4703368842601776 1.1385881900787354 7.822029113769531 100 88 100
0.5846115350723267 1.0751641988754272 7.786670684814453 91 80 84
0.20259712636470795 1.4549249410629272 6.520914077758789 79 63 74
0.2968134582042694 0.9755125045776367 6.115481853485107 112 115 98
0.1181025579571724 -0.21389317512512207 7.057625770568848 172 180 165
0.7497488856315613 1.0481523275375366 7.82096529006958 141 164 180
0.024186978116631508 -0.0420713797211647 7.07904052734375 184 193 188
0.3939518928527832 0.3572584092617035 7.245783805847168 76 106 130
-1.2580925226211548 1.378546953201294 6.598583221435547 156 162 178
-0.2046155035495758 0.1780635267496109 7.137572765350342 139 155 144
0.28827184438705444 -0.03253963217139244 7.115955829620361 161 172 164
-0.1022440567612648 -0.5195261836051941 7.297149181365967 235 248 241
-0.080286405980587 1.0399028062820435 6.429421424865723 31 40 79
0.8609304428100586 -0.8590312600135803 7.625650882720947 88 106 94
-0.058722056448459625 0.0667969137430191 7.06357479095459 161 177 174
-0.06078803166747093 0.30379143357276917 7.139342784881592 115 112 107
0.6351079344749451 1.1847275495529175 7.746823310852051 126 124 111
0.7123473286628723 -0.23742645978927612 7.677364349365234 44 39 43
-0.09528587013483047 1.0080310106277466 7.680816173553467 65 79 79
0.49897119402885437 1.5368424654006958 6.974337100982666 41 38 67
0.42767009139060974 1.421310544013977 6.980355262756348 79 80 84
0.23019865155220032 0.2375638484954834 7.146176815032959 34 58 70
-1.4315519332885742 1.401536464691162 6.3760528564453125 153 175 212
0.40734702348709106 0.4539172053337097 7.396908283233643 59 59 71
0.2650047242641449 -0.7475022077560425 7.776027202606201 117 94 102
-0.02900136634707451 1.6433584690093994 6.023204326629639 108 142 167
0.7265288829803467 -0.4081667363643646 7.677051067352295 119 100 106
0.04506528750061989 1.2155134677886963 6.492624759674072 64 78 113
-0.29445111751556396 -0.3099166452884674 6.6400146484375 189 172 164
-0.4269367754459381 0.3285854458808899 7.361974239349365 123 150 167
-0.45156702399253845 1.4183093309402466 6.262901306152344 120 130 142
0.6954504251480103 -0.4014691114425659 7.673980236053467 96 79 85
0.17924107611179352 1.5388786792755127 6.118112564086914 102 78 100
-0.029859086498618126 -0.35548990964889526 7.1475701332092285 104 112 114
-0.058610398322343826 -0.5437501072883606 7.3053083419799805 148 161 154
-0.7673323750495911 -0.6458929181098938 8.110172271728516 81 69 83
-0.6223887205123901 0.044051144272089005 7.476405620574951 132 130 141
0.4123358130455017 1.6394199132919312 6.846808433532715 70 87 156
0.3648381531238556 1.4403350353240967 6.741610527038574 30 28 41
-1.2216038703918457 1.2156472206115723 6.864583492279053 233 245 245
0.35535046458244324 1.5342223644256592 6.566325664520264 104 110 124
0.26029324531555176 1.571995496749878 6.28788948059082 35 49 86
0.4997384250164032 -0.726121723651886 7.767322063446045 106 86 85
-1.020169973373413 1.3277283906936646 6.6731438636779785 45 44 40
0.0869070366024971 1.3534936904907227 6.500387668609619 32 45 61
-0.1814233660697937 1.3720256090164185 6.239315032958984 24 34 44
0.11561595648527145 1.4280716180801392 6.583881855010986 93 99 99
-1.6467541456222534 1.546407699584961 6.4738969802856445 119 164 193
-1.2053438425064087 1.2044750452041626 7.213918685913086 226 244 244
-0.1645718812942505 -0.5377484560012817 7.3307037353515625 218 238 227
-0.20235466957092285 1.1518100500106812 6.349216461181641 58 77 120
-0.18814387917518616 -0.6756099462509155 7.709143161773682 24 25 30
0.7377225160598755 -0.263717383146286 7.688760757446289 78 63 66
-0.48419925570487976 0.12720339000225067 7.284308910369873 74 88 89
0.056651365011930466 1.7207938432693481 6.006385803222656 50 51 72
0.05608142167329788 0.3046744167804718 7.154752254486084 99 100 102
0.5703633427619934 0.21180756390094757 7.36134147644043 71 89 127
-0.1114434078335762 1.0192431211471558 7.921952724456787 110 110 112
0.6027364730834961 -0.5183878540992737 7.711066722869873 107 91 94
0.18685103952884674 1.4584622383117676 6.475130558013916 104 80 104
-0.15158580243587494 0.49070626497268677 7.321702480316162 93 96 87
-0.3479999005794525 1.6076135635375977 6.113070487976074 116 144 165
-0.27708321809768677 0.28887978196144104 7.202764511108398 130 151 156
-0.14630502462387085 1.6268064975738525 6.0436296463012695 109 150 170
-0.5864405035972595 -0.7761195302009583 8.00359058380127 124 108 119
0.17570167779922485 1.2080769538879395 7.2027692794799805 55 87 102
0.5905367136001587 -0.2229180485010147 7.350770950317383 103 86 76
-0.12274988740682602 -0.19098705053329468 7.091805934906006 168 173 167
-0.016310742124915123 -0.11296713352203369 7.068078517913818 151 152 138
0.2532860338687897 0.5549889206886292 7.393087863922119 62 60 71
0.3034623861312866 -0.24396391212940216 7.137256145477295 161 172 164
0.3928300738334656 -0.780052661895752 7.7469587326049805 125 110 115
0.27878502011299133 -0.012446628883481026 7.0874924659729 167 189 186
-0.2342817187309265 0.33798468112945557 7.215660095214844 123 131 116
-0.8988437652587891 0.8745245933532715 7.508227348327637 169 167 168
-0.22586394846439362 -0.2843427062034607 7.162155628204346 198 176 165
-0.3410712480545044 0.26809319853782654 7.230563640594482 139 157 169
0.10134318470954895 1.4413871765136719 6.530736446380615 72 80 82
-0.271350234746933 1.621357798576355 6.09132194519043 112 122 131
0.37925684452056885 -0.16069668531417847 7.156766891479492 160 173 163
-0.029859086498618126 -0.35548990964889526 7.1475701332092285 104 112 114
0.17650090157985687 1.3544949293136597 6.908055782318115 203 225 213
0.12288312613964081 1.1203280687332153 7.869985103607178 61 58 69
-0.2427491843700409 1.2921377420425415 6.283265113830566 72 99 144
-0.649116039276123 -0.6363314986228943 8.050898551940918 63 60 69
0.6132470369338989 -0.2922666668891907 7.42479133605957 148 125 109
0.41878336668014526 0.1427702009677887 7.200619220733643 106 125 140
0.3992640972137451 0.49009886384010315 7.433199405670166 32 28 43
-0.6396946907043457 1.426021933555603 6.368312835693359 101 114 123
-0.3635873794555664 -0.26111122965812683 7.200441360473633 180 148 133
-0.28760895133018494 0.9924511313438416 7.422677993774414 120 139 133
-0.29724055528640747 0.1689121425151825 7.1572442054748535 97 82 75
-0.42328253388404846 0.022283654659986496 7.202089309692383 123 115 112
-0.12836064398288727 -0.30326128005981445 7.15139102935791 183 197 184
0.40243464708328247 0.4418516159057617 7.37307071685791 25 29 41
0.7482050657272339 -0.7842493653297424 7.58460807800293 38 38 48
0.41800129413604736 -0.6365021467208862 7.7545599937438965 108 102 102
0.48028749227523804 1.568640112876892 6.926214218139648 73 99 126
-1.0597141981124878 1.3979512453079224 6.451523303985596 62 72 64
0.5821224451065063 0.27112823724746704 7.493535041809082 90 134 171
0.07748454064130783 0.7335437536239624 7.621709823608398 15 17 14
0.02181202545762062 1.4578412771224976 6.214815139770508 112 106 120
0.7102187275886536 1.5152149200439453 7.631433486938477 70 91 122
0.02020391635596752 1.4478707313537598 6.42855167388916 103 107 118
-0.5118089914321899 1.5884793996810913 6.138956546783447 55 69 104
-1.821146011352539 1.7747622728347778 5.521217346191406 195 224 255
0.028775732964277267 0.5270774364471436 7.3039774894714355 57 55 56
-0.24898763000965118 1.4478418827056885 6.289262294769287 88 103 106
0.6274846196174622 0.16246898472309113 7.42825984954834 64 81 107
0.16144166886806488 -0.03666834533214569 7.06150484085083 159 171 171
0.156106635928154 0.30389779806137085 7.159273624420166 133 161 173
-0.6624972820281982 1.505688190460205 6.1464128494262695 45 54 95
-0.6096887588500977 1.053095817565918 7.255019664764404 123 125 122
-0.7756406664848328 0.8560221791267395 7.409959316253662 152 156 133
0.7350666522979736 -0.11333102732896805 7.675371170043945 80 60 71
0.020886773243546486 1.501797080039978 6.0319061279296875 127 117 141
-0.1680128127336502 -0.10045965015888214 7.074690818786621 168 187 185
-0.12502644956111908 -0.1507394015789032 7.070825576782227 165 180 177
-0.13886842131614685 -0.5272571444511414 7.329912185668945 112 123 119
0.18305540084838867 1.090338110923767 7.870272159576416 51 46 53
-0.5627425909042358 -0.717954695224762 8.028969764709473 64 64 76
0.17305400967597961 -0.5745668411254883 7.386362075805664 235 237 223
-0.0632423609495163 1.4392279386520386 6.367425918579102 52 51 59
-0.3923081159591675 0.17416353523731232 7.210293769836426 82 89 82
0.3613146245479584 1.6221458911895752 6.594010353088379 49 53 100
-0.20532460510730743 1.0421377420425415 6.37304162979126 44 49 69
0.17274609208106995 -0.45255574584007263 7.194979667663574 226 249 233
-0.4541948139667511 0.242690771818161 7.306024551391602 119 141 154
0.4889146685600281 -0.24028246104717255 7.2577805519104 177 189 175
-0.02234777808189392 1.3705600500106812 6.391812324523926 32 43 63
0.13090796768665314 -0.1015084832906723 7.067879676818848 142 152 143
-0.498828262090683 0.8820704221725464 7.532948970794678 160 140 116
0.04329582676291466 1.3208115100860596 6.429470539093018 60 84 120
-1.094472885131836 1.26893150806427 6.685695648193359 198 207 202
0.5829449892044067 -0.5193262100219727 7.717177867889404 87 73 73
0.13376696407794952 0.49101170897483826 7.291618824005127 14 25 45
-0.8313721418380737 0.5841553211212158 8.151548385620117 114 96 108
0.2187582105398178 1.1952707767486572 7.374348163604736 195 202 208
0.3503130078315735 0.4405226707458496 7.332801342010498 51 63 77
-1.425360083580017 1.6550467014312744 6.414727210998535 22 28 52
0.17305400967597961 -0.5745668411254883 7.386362075805664 235 237 223
-0.2481050342321396 1.122369408607483 6.332869052886963 117 150 195
0.08651964366436005 0.06896910816431046 7.060190200805664 96 107 109
-0.8055334687232971 1.3068379163742065 6.7309675216674805 88 94 94
-0.26219993829727173 -0.2874833941459656 7.1726508140563965 193 181 169
0.6023342609405518 0.031133640557527542 7.313544273376465 134 134 132
0.25534385442733765 1.4149128198623657 6.681307792663574 64 74 86
0.704230546951294 -0.5966660976409912 7.659850597381592 84 78 80
-0.034318696707487106 0.49151474237442017 7.254828929901123 80 73 65
0.2471282184123993 -0.3765827417373657 7.155054569244385 213 226 216
-0.8401529788970947 -0.7235347628593445 8.105711936950684 99 97 98
-0.5836436748504639 1.405565619468689 6.5367231369018555 160 148 168
0.7077500820159912 1.4098185300827026 7.742781639099121 91 81 92
-0.506651759147644 1.5126644372940063 6.114591598510742 72 98 121
0.2081822156906128 0.4854760468006134 7.231865406036377 69 66 61
0.6918327808380127 -0.6867414712905884 7.676088809967041 57 57 65
0.6522541046142578 0.5384066700935364 7.74280309677124 49 50 55
0.16501833498477936 -0.7550860047340393 7.80738639831543 59 50 53
0.04951447993516922 -0.13117165863513947 7.072512149810791 124 104 97
-0.19596193730831146 -0.3880058228969574 7.193039894104004 205 208 189
-0.7011829018592834 1.2195954322814941 6.9796295166015625 138 146 149
0.21962878108024597 1.5046738386154175 6.315964221954346 127 119 132
-0.8646470904350281 1.4089441299438477 6.39948844909668 42 50 39
-0.8490011096000671 1.6748803853988647 6.241189479827881 86 85 103
0.25415802001953125 0.3776416480541229 7.2345356941223145 99 111 111
-0.8372244834899902 -0.46669185161590576 8.105226516723633 84 71 81
0.4300486147403717 1.1242694854736328 7.810549736022949 82 81 79
0.2336520254611969 1.231439471244812 7.452821731567383 73 88 91
-1.6101347208023071 1.4732270240783691 6.499414920806885 52 77 118
0.5055736303329468 1.3881467580795288 7.349528789520264 122 90 105
-0.3003319799900055 -0.2621917128562927 7.175414562225342 187 180 174
-1.1540966033935547 1.401507019996643 6.485298156738281 143 145 166
-0.12085584551095963 -0.5242696404457092 7.290736198425293 137 142 136
0.4190303385257721 0.445392370223999 7.398538112640381 36 33 42
0.16595962643623352 1.4978300333023071 6.223186492919922 92 81 97
-1.4180755615234375 1.4367954730987549 6.366367816925049 23 35 77
0.10569640249013901 1.4715280532836914 6.308975696563721 140 121 140
-1.1526272296905518 1.231163501739502 6.7276153564453125 82 84 97
0.23887880146503448 1.6254725456237793 6.240085601806641 60 59 93
-0.09935226291418076 1.3738669157028198 6.35532808303833 39 47 66
0.6523520946502686 0.20397965610027313 7.545163154602051 105 127 141
0.13761074841022491 1.5569067001342773 6.069345474243164 82 79 88
-0.13287802040576935 -0.18267221748828888 7.097652912139893 90 90 82
0.7222157120704651 -0.4700055420398712 7.662234783172607 93 68 71
0.0968860536813736 0.17559511959552765 7.08541202545166 109 134 131
0.5906895399093628 1.2051186561584473 7.746379852294922 59 52 60
-0.1265249401330948 0.49416396021842957 7.296644687652588 57 58 53
0.06458378583192825 1.3079785108566284 6.41397762298584 54 87 120
-0.1873590648174286 0.6929013729095459 7.782721996307373 54 63 68
-0.11361830681562424 0.4497402012348175 7.267467975616455 130 125 105
0.3613146245479584 1.6221458911895752 6.594010353088379 49 53 100
0.5263962745666504 -0.8206371068954468 7.69460391998291 87 77 75
-0.986114501953125 1.4076220989227295 6.425569534301758 40 41 43
0.1323769986629486 1.5304099321365356 6.039861679077148 91 77 92
0.6612903475761414 0.6930639743804932 7.739978790283203 41 42 44
-0.5316353440284729 1.6089142560958862 6.134810447692871 79 90 108
-0.5630559921264648 1.6736527681350708 6.148911476135254 37 35 46
0.5010314583778381 -0.6480472683906555 7.708108425140381 129 109 118
0.4469578266143799 0.41606807708740234 7.390888214111328 57 65 78
0.031521379947662354 1.5250297784805298 5.9767985343933105 143 134 155
-0.3935072124004364 -0.1972639560699463 7.200472831726074 179 169 160
-0.11170245707035065 0.722918689250946 7.645063877105713 53 57 56
0.7927348017692566 -0.4771793484687805 7.6207499504089355 124 122 127
-0.003271628636866808 0.8517941236495972 7.750251770019531 38 48 49
0.6877875328063965 -0.44240602850914 7.677855014801025 84 73 77
-0.5095348954200745 1.4597529172897339 6.118206977844238 69 66 93
0.363908588886261 1.5732502937316895 6.597197532653809 40 37 64
0.39125001430511475 -0.06253768503665924 7.159270286560059 158 176 176
0.39719805121421814 1.5388145446777344 6.672729969024658 34 35 65
-0.5378903150558472 1.6314462423324585 6.133070945739746 64 88 116
-0.8063288927078247 1.4227248430252075 6.360511302947998 155 161 183
0.19753770530223846 0.29536017775535583 7.140812397003174 127 156 170
0.7114163637161255 0.6479601263999939 7.735177516937256 82 77 83
-0.9463944435119629 1.3110297918319702 6.688204765319824 36 41 44
-0.03841957077383995 1.6804758310317993 6.000323295593262 91 110 124
-0.3330523371696472 0.09398254752159119 7.143289089202881 126 109 101
-0.12157372385263443 -0.5052876472473145 7.2733049392700195 222 207 202
-0.34606292843818665 -0.009798253886401653 7.1473822593688965 52 52 60
-0.6530059576034546 0.8492128252983093 7.457825660705566 53 82 78
-0.16220875084400177 -0.5226548314094543 7.304190635681152 119 125 121
0.6207064986228943 -0.4039030373096466 7.713145732879639 91 76 71
0.21021565794944763 1.5335404872894287 6.230992794036865 82 78 101
-0.6245954632759094 0.7790172696113586 8.123506546020508 70 61 64
-0.49618953466415405 1.3386220932006836 6.538568019866943 218 230 230
-1.0882105827331543 1.198819875717163 7.012558937072754 128 151 185
-0.5093488693237305 1.438435673713684 6.141046047210693 95 93 94
-0.3011068105697632 1.4380589723587036 6.3156938552856445 77 73 87
0.5408273339271545 1.3938175439834595 7.329743385314941 73 68 64
0.7616779208183289 1.3646581172943115 7.897894382476807 28 29 47
-0.715295135974884 1.105411410331726 7.5617499351501465 168 159 154
-0.07204500585794449 -0.8521842956542969 7.6303791999816895 111 130 144
0.2541187107563019 1.4438890218734741 6.669307708740234 121 129 152
-0.4358285963535309 -0.1857050210237503 7.238548278808594 167 157 147
-0.7872761487960815 0.6548717021942139 8.141435623168945 83 74 75
-0.3839905560016632 -0.21750299632549286 7.190736293792725 167 147 136
-0.4959747791290283 -0.14102602005004883 7.276007652282715 167 154 135
0.6719804406166077 -0.26719170808792114 7.68065881729126 46 37 40
-0.7848111391067505 1.1475168466567993 7.542288303375244 149 151 140
0.023750964552164078 1.3966331481933594 6.463824272155762 42 51 66
0.33111193776130676 -0.0023427975829690695 7.109685897827148 129 132 137
-0.17165406048297882 0.3245718479156494 7.184747219085693 114 113 108
-0.0017650281079113483 0.3415939509868622 7.1573076248168945 54 47 55
-0.7158601880073547 1.1124439239501953 7.011080265045166 30 32 29
-1.819257140159607 1.7542694807052612 5.50425386428833 156 206 255
0.31981998682022095 0.14898234605789185 7.130029201507568 141 175 187
0.3864034116268158 0.3477625548839569 7.2837724685668945 110 129 127
-0.2987438440322876 1.2473753690719604 6.318024635314941 107 138 182
0.1788775771856308 -0.7167278528213501 7.794005393981934 67 52 57
-0.7657688856124878 0.8185420632362366 8.032712936401367 83 62 67
-0.006395307369530201 0.43771177530288696 7.235836029052734 44 40 37
0.23897625505924225 0.7817944884300232 7.570356845855713 107 107 95
0.0968860536813736 0.17559511959552765 7.08541202545166 109 134 131
-0.543780505657196 1.4113372564315796 6.544578552246094 136 137 157
-0.5056301951408386 1.4788554906845093 6.091787338256836 65 61 86
-0.5303689241409302 1.5715558528900146 6.122190475463867 31 37 73
0.25569236278533936 0.5071406960487366 7.349946022033691 47 49 62
0.11882901936769485 0.20590540766716003 7.097820281982422 113 130 122
0.2471282184123993 -0.3765827417373657 7.155054569244385 213 226 216
0.5496933460235596 1.460362195968628 7.230413436889648 48 35 63
0.5310313701629639 0.29839983582496643 7.3883056640625 83 121 166
0.7683418393135071 -0.8147079944610596 7.624967575073242 152 156 123
-0.3559907376766205 -0.8286741971969604 7.956004619598389 107 97 106
0.09799035638570786 1.481488585472107 6.19149112701416 94 80 97
0.6526817679405212 1.3759435415267944 7.697577953338623 86 75 83
-1.1442534923553467 1.3798898458480835 6.563517093658447 107 124 134
0.37379729747772217 -0.18798717856407166 7.149881362915039 172 195 179
0.14361445605754852 1.5338629484176636 6.0993523597717285 89 79 87
-0.847545862197876 1.387216329574585 6.384549617767334 145 153 164
0.14242428541183472 1.3590565919876099 6.827541351318359 209 229 228
0.29865050315856934 1.144752025604248 7.866204261779785 58 48 49
-0.5733259320259094 0.1300847828388214 7.389431953430176 141 165 175
-0.07452251762151718 1.4918078184127808 6.085678577423096 125 121 148
0.4147336781024933 0.4313068389892578 7.394860744476318 54 60 84
-0.2826283574104309 1.4230709075927734 6.317485809326172 26 27 32
0.6058538556098938 -0.6048685312271118 7.695634365081787 116 106 105
0.5721024870872498 0.13846896588802338 7.32327127456665 119 140 167
-0.22147242724895477 0.8623713850975037 7.70048189163208 58 48 49
-0.6275907158851624 1.4878499507904053 6.138967037200928 51 51 87
-0.01638297364115715 0.4789787828922272 7.2569379806518555 60 51 52
0.11343579739332199 1.452293872833252 6.4936299324035645 83 71 81
-0.2766913175582886 -0.21095356345176697 7.151428699493408 172 163 154
0.06306423991918564 1.680593729019165 5.958039283752441 71 87 110
0.7477048635482788 -0.8443924784660339 7.60996675491333 90 97 90
-0.37828391790390015 0.2293895184993744 7.2323198318481445 94 111 118
0.5406809449195862 -0.7315575480461121 7.7059502601623535 123 111 111
0.6816806793212891 1.4035680294036865 7.688116550445557 99 90 109
-0.42925965785980225 -0.7283275127410889 7.966423511505127 97 91 95
0.5557073354721069 1.39751136302948 7.345030307769775 111 106 103
0.6762559413909912 0.70071941614151 7.739797115325928 65 67 66
0.0742299035191536 0.34436216950416565 7.134308815002441 76 68 66
-0.6277592778205872 1.4306950569152832 6.33990478515625 146 163 170
0.7794979810714722 -0.4172404706478119 7.652531147003174 117 103 103
0.004791713319718838 0.4428001642227173 7.265997886657715 79 68 64
-0.6496937274932861 0.8219642043113708 8.033544540405273 71 57 56
0.02972402423620224 -0.21878530085086823 7.05871057510376 191 203 191
0.1880049854516983 1.4678919315338135 6.4613938331604 151 149 160
0.29265040159225464 1.2646574974060059 7.37103271484375 23 22 27
0.6862109899520874 -0.1291695535182953 7.618503093719482 125 106 100
0.49846696853637695 1.1459391117095947 7.810171604156494 62 52 63
-0.6179988980293274 1.5484906435012817 6.156296253204346 90 103 112
-0.4786372184753418 0.01472795382142067 7.2818193435668945 129 111 109
-0.4560692012310028 1.4208388328552246 6.486681938171387 144 153 170
-0.7658881545066833 0.9563677906990051 7.4504075050354 20 28 31
0.6556823253631592 1.5826985836029053 7.574855804443359 44 74 136
0.48940983414649963 1.5524084568023682 6.9517083168029785 33 41 87
0.2706657648086548 -0.15660269558429718 7.105442047119141 182 206 190
0.2220350205898285 -0.19209446012973785 7.103842258453369 166 178 164
-0.19252005219459534 0.4137853980064392 7.266315937042236 102 109 101
-0.3245800733566284 -0.21272774040699005 7.182939052581787 109 94 97
-0.08503492921590805 1.458335280418396 6.388433456420898 122 147 141
0.4797687232494354 -0.6277346611022949 7.722671985626221 112 104 102
0.05107396841049194 -0.5967230796813965 7.378470420837402 229 240 226
-0.7061437964439392 1.4497902393341064 6.229430198669434 150 146 173
-0.05158524960279465 0.3391250967979431 7.1530680656433105 98 95 88
-0.19192788004875183 1.4553203582763672 6.247631072998047 128 113 134
0.654666006565094 0.18443700671195984 7.52151346206665 38 52 81
-1.1583493947982788 1.2089711427688599 7.0372748374938965 223 239 229
-0.4424160420894623 -0.025342898443341255 7.202930927276611 102 97 91
0.6103097796440125 -0.7772443294525146 7.676314353942871 77 64 71
-0.5898826122283936 1.417785406112671 6.338797092437744 49 50 52
0.7163324952125549 1.030692458152771 7.7483320236206055 82 63 65
-0.07909554988145828 0.7692374587059021 7.70798921585083 32 40 42
0.25395187735557556 0.15818388760089874 7.131728172302246 113 138 142
-0.5674352645874023 1.1762173175811768 6.841641902923584 222 232 255
-0.5959190130233765 1.5885924100875854 6.161125659942627 35 57 68
-0.28239232301712036 -0.422516405582428 7.281393051147461 196 182 169
-0.4341077208518982 0.8277192711830139 8.098150253295898 84 66 66
-0.22934119403362274 1.117346167564392 6.385353088378906 134 168 214
-1.536986231803894 1.3815252780914307 6.374302864074707 189 200 202
0.5237016081809998 0.4470372796058655 7.626282691955566 46 74 98
0.6732850670814514 0.4585517644882202 7.732346534729004 61 59 64
0.6708171963691711 0.3799823820590973 7.687999725341797 51 46 52
0.9063820838928223 -0.809101939201355 7.776993751525879 95 106 100
0.2177705317735672 1.4946955442428589 6.341667652130127 105 85 96
-0.09807982295751572 -0.1764635145664215 7.075536727905273 172 183 177
0.12870509922504425 0.7528356909751892 7.601673603057861 45 47 44
0.2477203905582428 1.484622836112976 6.417885780334473 87 76 92
0.251495361328125 1.6870813369750977 6.311740875244141 70 87 141
0.6167984008789062 -0.6874077916145325 7.708024024963379 87 70 76
0.4526389539241791 0.34022441506385803 7.3177900314331055 75 91 107
0.5794895887374878 0.24033869802951813 7.394423961639404 36 64 104
0.31669458746910095 1.371324062347412 6.910035610198975 170 182 180
-0.49614039063453674 1.605899691581726 6.126343727111816 78 110 135
-0.36984869837760925 1.457507610321045 6.211312294006348 134 120 135
0.7222157120704651 -0.4700055420398712 7.662234783172607 93 68 71
-0.13760749995708466 0.3172127902507782 7.175459861755371 125 118 108
0.2754970192909241 1.4804569482803345 6.457139492034912 134 101 120
-0.5555132031440735 1.4616032838821411 6.150755405426025 135 126 155
0.7475754022598267 -0.41182008385658264 7.680418491363525 95 86 89
0.22867821156978607 1.4569867849349976 6.562727451324463 132 139 145
0.6416499018669128 -0.5747765898704529 7.674925327301025 90 78 80
0.3893411159515381 1.5781404972076416 6.665325164794922 90 106 132
-0.03832746669650078 0.21428968012332916 7.098207473754883 134 155 158
0.5360559225082397 1.375235915184021 7.3130035400390625 122 92 104
0.6190545558929443 0.2436152696609497 7.474251747131348 100 129 163
-0.02458219602704048 0.3514707684516907 7.171146869659424 117 102 105
-1.3624497652053833 1.3746663331985474 6.689240455627441 135 131 148
-0.38618871569633484 -0.2377517968416214 7.22629976272583 172 145 128
0.273194819688797 1.6008907556533813 6.310101509094238 40 44 91
0.44227516651153564 0.15947379171848297 7.220400333404541 144 168 172
-0.7158158421516418 1.408748745918274 6.3766703605651855 173 178 184
0.2220350205898285 -0.19209446012973785 7.103842258453369 166 178 164
-1.7732089757919312 1.7775980234146118 5.496191024780273 197 224 254
-0.07565615326166153 0.34641554951667786 7.156528949737549 80 69 67
-1.6088428497314453 1.5774617195129395 6.470324516296387 70 76 98
-0.6125193238258362 1.630638599395752 6.157544136047363 67 71 74
0.6898293495178223 -0.41998812556266785 7.69863748550415 115 92 102
0.23987145721912384 1.4721375703811646 6.46938943862915 88 76 90
0.5836024284362793 1.0547429323196411 7.772347927093506 41 46 49
-0.5033934116363525 1.4186558723449707 6.221390247344971 51 54 35
0.15327990055084229 0.7591445446014404 7.608487129211426 79 81 68
-0.607369065284729 -0.6993880867958069 8.051690101623535 73 72 88
0.050737615674734116 1.5162720680236816 5.9695539474487305 125 112 132
-0.5792810916900635 1.4208077192306519 6.274665355682373 150 161 181
0.03726530075073242 0.349416583776474 7.167946815490723 105 94 88
-0.5093488693237305 1.438435673713684 6.141046047210693 95 93 94
0.5647132396697998 1.1298164129257202 7.78813362121582 44 38 48
-0.29166379570961 0.7854905128479004 7.968343734741211 73 57 58
0.5304432511329651 1.281018853187561 7.7644782066345215 126 123 104
0.5205034613609314 -0.4262954592704773 7.436380863189697 173 147 124
