ply
format ascii 1.0
element vertex 695
property float x
property float y
property float z
property uchar red
property uchar green
property uchar blue
end_header
0.21734218299388885 0.23073537647724152 8.516334533691406 140 170 170
0.46588340401649475 0.15776735544204712 8.621673583984375 139 160 163
0.18431641161441803 0.028039555996656418 8.46082878112793 119 130 116
0.08474168181419373 -0.15653927624225616 8.446473121643066 172 186 173
0.24848563969135284 -0.14582955837249756 8.483627319335938 172 184 170
0.13099484145641327 0.19555436074733734 8.5165376663208 151 161 163
0.4970773160457611 -0.3470120429992676 8.631821632385254 170 179 148
0.3504602015018463 -0.41009610891342163 8.56786060333252 218 230 220
0.5482932329177856 0.224449023604393 8.693772315979004 125 154 150
0.1630764901638031 -0.13809239864349365 8.473240852355957 187 204 188
0.08474168181419373 -0.15653927624225616 8.446473121643066 172 186 173
-0.0488419272005558 -1.106455683708191 9.449997901916504 104 86 74
-0.1317700296640396 -0.09177182614803314 8.45728874206543 185 198 180
0.059703975915908813 -0.12191122770309448 8.444770812988281 190 198 174
0.059703975915908813 -0.12191122770309448 8.444770812988281 190 198 174
0.4575212299823761 0.19443655014038086 8.634279251098633 126 161 165
0.8896276950836182 0.4040972888469696 9.185713768005371 99 96 107
0.024406854063272476 0.262712299823761 8.522565841674805 139 158 162
0.18431641161441803 0.028039555996656418 8.46082878112793 119 130 116
0.4756932556629181 -0.22600623965263367 8.578094482421875 176 187 170
0.0632680132985115 0.34422850608825684 8.5543794631958 135 153 153
0.3219594657421112 0.24812883138656616 8.584364891052246 140 158 160
0.21256263554096222 0.14611098170280457 8.506181716918945 154 178 180
0.8866729736328125 0.037229981273412704 9.115455627441406 87 76 80
0.23702317476272583 -0.32059791684150696 8.500214576721191 203 215 195
0.01404343917965889 -0.035574544221162796 8.427955627441406 137 150 132
0.924156129360199 -0.2903269827365875 9.104256629943848 113 81 82
-0.05282016843557358 -0.3223377466201782 8.468337059020996 213 222 201
0.18431641161441803 0.028039555996656418 8.46082878112793 119 130 116
0.4408291280269623 -0.22300735116004944 8.568563461303711 160 170 161
0.8786004781723022 0.4765374958515167 9.210156440734863 104 96 109
0.47765979170799255 0.20955324172973633 8.648696899414062 37 45 64
0.23096776008605957 -0.07620734721422195 8.478104591369629 135 137 116
0.5124891996383667 -0.19858016073703766 8.610391616821289 194 198 184
0.2639329135417938 0.02192496880888939 8.469125747680664 159 169 160
1.019568681716919 0.16261254251003265 9.411025047302246 101 86 91
0.47765979170799255 0.20955324172973633 8.648696899414062 37 45 64
0.2975786030292511 -0.13426898419857025 8.487934112548828 171 181 170
-0.013639229349792004 -0.2696746587753296 8.45998764038086 185 191 165
0.27279695868492126 -0.3205248713493347 8.503477096557617 209 221 201
0.46732425689697266 0.13482049107551575 8.610121726989746 137 161 161
0.5622469782829285 0.1903177797794342 8.708613395690918 116 140 150
-0.041698627173900604 -0.14133624732494354 8.463678359985352 176 188 178
-0.2622922956943512 0.2091343104839325 8.537168502807617 59 79 77
0.5069533586502075 -0.028103487566113472 8.586405754089355 135 119 103
0.25765544176101685 -0.3710438013076782 8.523773193359375 195 204 183
0.9354674816131592 0.5432606339454651 9.36928939819336 120 134 134
-0.0620633102953434 -0.13837194442749023 8.447027206420898 170 187 171
-0.02185947634279728 -0.18058167397975922 8.448410034179688 180 191 175
0.3218492269515991 0.21683067083358765 8.568920135498047 136 157 158
0.1272270232439041 -0.35175761580467224 8.490802764892578 209 222 204
0.08361180871725082 -0.5071359872817993 8.559712409973145 205 218 200
0.49511921405792236 -0.42476457357406616 8.670751571655273 185 187 163
0.4632606506347656 -0.32931283116340637 8.61052417755127 182 188 162
-0.42530739307403564 -0.05631493031978607 8.55385971069336 104 108 107
0.7265524864196777 -0.0949786901473999 8.993183135986328 97 88 71
-0.25116169452667236 -0.2550804615020752 8.494245529174805 165 174 153
0.16488279402256012 -0.38611242175102234 8.500417709350586 197 206 189
0.08697334676980972 0.1705746203660965 8.500829696655273 115 127 123
0.4825398921966553 -0.003108089091256261 8.588092803955078 41 42 44
0.2517106831073761 -0.9820583462715149 9.289765357971191 107 88 84
0.25674524903297424 0.3131812512874603 8.57341480255127 134 147 164
0.18859067559242249 -0.46404534578323364 8.535550117492676 186 200 165
0.3981529176235199 -0.4162681996822357 8.60235595703125 197 205 192
0.043477561324834824 -0.48488494753837585 8.548233985900879 213 228 205
-0.02734084241092205 -0.3644745945930481 8.495532035827637 203 211 198
0.06500028818845749 0.2237575203180313 8.468382835388184 149 175 174
-0.09615495800971985 -0.07850281149148941 8.44876766204834 137 142 122
-0.05186328664422035 -0.10260482877492905 8.445535659790039 175 187 165
0.13170933723449707 -0.5061507821083069 8.565423011779785 217 229 205
-0.10199514031410217 -0.03589259460568428 8.451299667358398 115 123 110
0.5724361538887024 -0.23682722449302673 8.658429145812988 155 137 125
0.35349661111831665 0.19541579484939575 8.556573867797852 97 112 117
-0.0030404794961214066 0.12399328500032425 8.47385311126709 153 173 174
0.11407925933599472 0.45550376176834106 8.645087242126465 43 46 61
0.03283432126045227 -0.2889586389064789 8.457959175109863 204 213 194
0.39893069863319397 0.18916219472885132 8.594870567321777 86 104 108
0.3054925799369812 0.23293264210224152 8.575722694396973 37 53 69
0.37503936886787415 -0.2140301764011383 8.475064277648926 183 204 185
0.5660566091537476 -0.10489313304424286 8.6392822265625 37 43 41
0.006195832509547472 -0.5948337316513062 8.613079071044922 247 255 234
-0.217767134308815 -0.11336223781108856 8.485724449157715 140 139 118
0.6552030444145203 -0.590667188167572 9.145828247070312 64 54 45
0.11394664645195007 -0.38404953479766846 8.496842384338379 197 212 191
-0.34149983525276184 -0.05302810296416283 8.50291919708252 165 174 155
0.22339046001434326 -0.49745064973831177 8.57144546508789 214 228 211
0.9053994417190552 0.08614996820688248 9.197626113891602 91 79 79
0.14087910950183868 -0.3370617926120758 8.488919258117676 176 185 156
0.6023647785186768 -0.20771752297878265 8.683494567871094 146 135 115
-0.012198957614600658 0.36289066076278687 8.580455780029297 60 63 56
0.27961087226867676 -0.0345739871263504 8.478768348693848 153 166 157
0.0698714479804039 -0.1447024941444397 8.450533866882324 71 78 70
0.43837547302246094 0.23952504992485046 8.610143661499023 129 147 169
0.6083207130432129 0.08383994549512863 8.720691680908203 128 134 132
0.09121278673410416 0.44348180294036865 8.631957054138184 93 93 69
-0.058846961706876755 -0.014268143102526665 8.446133613586426 163 173 162
0.597676694393158 -0.41485828161239624 8.76132869720459 75 52 44
0.332140177488327 -0.5834035873413086 8.689949035644531 223 235 213
-0.31372347474098206 -0.06143197417259216 8.525696754455566 161 175 162
-0.2598109543323517 -0.10539344698190689 8.473100662231445 138 147 126
0.4451625645160675 0.3678399920463562 8.721635818481445 38 39 43
-0.1944904625415802 -0.4918009340763092 8.563385963439941 226 237 221
0.49451544880867004 0.18967808783054352 8.653112411499023 107 129 140
0.1250387728214264 -0.13117732107639313 8.47523307800293 181 199 175
0.439077764749527 0.4534655511379242 8.792154312133789 73 79 93
0.47035709023475647 0.005496951751410961 8.598912239074707 51 49 60
-0.020165102556347847 0.11005429923534393 8.462925910949707 170 187 171
0.29978877305984497 0.03577698394656181 8.503755569458008 55 61 59
0.1695689707994461 0.07294502854347229 8.48850154876709 174 189 166
-0.14305245876312256 -0.10486430674791336 8.449291229248047 71 74 65
-0.038425326347351074 0.3095630407333374 8.55274772644043 142 162 150
0.04607855901122093 -0.16677258908748627 8.43469524383545 186 204 190
-0.10938218235969543 0.17109252512454987 8.499737739562988 146 157 143
0.20989961922168732 -0.30881351232528687 8.488953590393066 206 215 194
0.11992143839597702 0.35555049777030945 8.586580276489258 125 144 148
0.13037726283073425 0.1655217409133911 8.506808280944824 151 169 173
0.39893069863319397 0.18916219472885132 8.594870567321777 86 104 108
-0.08086096495389938 -0.052390206605196 8.44657039642334 177 191 176
-0.004020768217742443 0.2686176002025604 8.510461807250977 141 163 161
0.09105465561151505 0.42198145389556885 8.603944778442383 54 55 57
0.06850524991750717 -0.03390385955572128 8.443055152893066 183 192 175
0.0914500504732132 0.0872940942645073 8.466310501098633 158 169 155
0.30683210492134094 -0.6439623236656189 8.759207725524902 149 155 141
-0.02695295214653015 0.9047086238861084 9.206143379211426 66 74 63
0.11253414303064346 0.05242742970585823 8.468541145324707 170 186 183
-0.19325600564479828 -0.1142750158905983 8.47438907623291 136 147 131
0.4398292303085327 -0.5627568364143372 8.752132415771484 215 223 200
0.8568480014801025 0.629542887210846 9.16797161102295 139 133 135
0.6434739232063293 0.20266129076480865 8.798444747924805 41 52 72
0.4405495822429657 0.2770653963088989 8.66469955444336 110 122 144
0.15245939791202545 -0.5978190898895264 8.62533187866211 231 243 229
0.2766053378582001 -0.07993797212839127 8.484820365905762 161 166 159
-0.04051364213228226 0.02460668236017227 8.46857738494873 161 178 172
0.5111690163612366 0.22815412282943726 8.7113676071167 136 158 145
0.16013257205486298 -0.24440348148345947 8.480563163757324 173 185 163
0.32227712869644165 0.05599251762032509 8.510719299316406 157 168 170
0.45041945576667786 -0.42152756452560425 8.635208129882812 215 223 210
0.865523099899292 0.46468520164489746 9.150102615356445 94 89 83
-0.318742036819458 0.1889744997024536 8.550271034240723 118 134 131
-0.0871928334236145 -0.9320323467254639 9.24854850769043 72 78 74
0.09665927290916443 0.1537851244211197 8.496149063110352 150 170 171
-0.25940725207328796 0.15447144210338593 8.52509593963623 157 174 164
-0.16671255230903625 -0.319137305021286 8.48127269744873 80 81 76
0.14854878187179565 0.41973647475242615 8.634843826293945 48 57 56
-0.020542630925774574 0.2208888828754425 8.514982223510742 133 140 132
-0.1313132643699646 -0.3116908073425293 8.488483428955078 193 206 189
-0.3406783938407898 -0.01743900403380394 8.507823944091797 161 174 165
-0.3643043637275696 -0.2052823305130005 8.52197551727295 172 170 149
0.4545503258705139 0.19269153475761414 8.635804176330566 138 158 169
0.2813347280025482 -0.25903913378715515 8.502801895141602 188 200 176
0.4067678451538086 0.3089037537574768 8.678068161010742 97 112 133
-0.17775854468345642 -0.009955072775483131 8.465829849243164 134 141 123
0.4042526185512543 0.20675480365753174 8.597641944885254 150 168 172
0.501178503036499 0.0414428785443306 8.620699882507324 45 50 53
0.06794659048318863 -0.5852877497673035 8.6178560256958 195 204 183
-0.04051364213228226 0.02460668236017227 8.46857738494873 161 178 172
-0.20567676424980164 0.26717305183410645 8.559761047363281 141 153 149
0.5149769186973572 -0.39860689640045166 8.683317184448242 196 201 178
0.6308737993240356 -0.43324801325798035 8.856395721435547 158 133 113
0.5588080883026123 0.5367351174354553 9.107791900634766 39 58 72
0.0943775549530983 0.9039196968078613 9.12368106842041 63 75 55
0.39211973547935486 -0.4748006761074066 8.636735916137695 147 149 135
0.11285112798213959 0.2812309265136719 8.536840438842773 152 175 169
-0.14408953487873077 -0.11697827279567719 8.461153984069824 86 90 89
-0.18837882578372955 -0.2990938127040863 8.485588073730469 196 210 193
0.2521763741970062 -0.40382227301597595 8.531805992126465 202 214 202
0.31077662110328674 -0.01768295280635357 8.49862003326416 141 152 144
0.16279195249080658 -0.13738004863262177 8.474029541015625 187 204 188
-0.15076610445976257 -0.2816931903362274 8.47443962097168 193 196 179
0.3608569800853729 -0.023968001827597618 8.514315605163574 156 162 160
0.5118663907051086 0.35800793766975403 8.778127670288086 88 107 122
-0.18816295266151428 0.294681578874588 8.554091453552246 131 136 132
0.010800324380397797 0.10500185936689377 8.478330612182617 159 181 178
0.0976482555270195 -0.0628080666065216 8.44987678527832 170 176 164
-0.07379975914955139 0.24053697288036346 8.512420654296875 61 71 62
0.9111907482147217 0.18658587336540222 9.185981750488281 100 98 103
0.5721752047538757 0.38354289531707764 8.842864990234375 88 131 138
0.58614581823349 0.013323040679097176 8.66914176940918 158 173 168
0.4801284670829773 -0.1922229826450348 8.57345199584961 174 178 155
-0.009161238558590412 0.8728433847427368 9.213777542114258 19 24 18
-0.02892616204917431 0.15083085000514984 8.480010986328125 128 149 144
0.9379026889801025 -0.24507080018520355 9.118425369262695 115 90 93
0.8827152252197266 -0.28528377413749695 9.078619003295898 111 86 82
0.588720977306366 0.4433678388595581 8.91075611114502 86 101 122
0.6301839351654053 0.18680927157402039 8.76973819732666 121 134 150
-0.16805745661258698 0.20362170040607452 8.525853157043457 113 124 108
-0.3168911635875702 -0.22803959250450134 8.506490707397461 172 175 164
-0.5135881304740906 -0.42231324315071106 8.710243225097656 193 172 153
0.5741808414459229 -0.0213755015283823 8.642315864562988 115 125 127
0.22882093489170074 -0.3635508120059967 8.511249542236328 209 224 191
-0.4031256437301636 0.36596450209617615 8.681819915771484 128 136 121
-0.22827363014221191 -0.15357185900211334 8.485671997070312 147 136 118
0.8254305720329285 0.5491171479225159 9.174723625183105 63 48 43
0.6101650595664978 0.12648560106754303 8.739593505859375 147 167 174
0.26571568846702576 0.15579108893871307 8.520740509033203 128 144 143
0.6085333824157715 0.3525761663913727 8.874579429626465 77 113 139
0.5038600564002991 0.26263442635536194 8.728104591369629 102 128 151
-0.18837882578372955 -0.2990938127040863 8.485588073730469 196 210 193
-0.5154058933258057 -0.45496511459350586 8.727509498596191 195 176 161
-0.506115734577179 -0.06146463006734848 8.610698699951172 161 167 165
0.2129315584897995 -0.5337389707565308 8.586973190307617 232 242 218
0.5747283101081848 0.33213987946510315 8.821850776672363 22 61 92
0.5280003547668457 -0.001917558372952044 8.622881889343262 46 54 65
0.29978877305984497 0.03577698394656181 8.503755569458008 55 61 59
0.23262560367584229 0.11143004894256592 8.506609916687012 161 180 178
0.6127932667732239 0.3884158134460449 8.974666595458984 91 114 120
-0.2028658241033554 -0.2463579624891281 8.48149585723877 84 88 74
0.09720920771360397 -0.6602113842964172 8.676217079162598 222 227 205
0.5955550670623779 0.38346415758132935 8.907320022583008 104 112 115
-0.0052188304252922535 0.3424042761325836 8.569787979125977 138 156 158
-0.19325600564479828 -0.1142750158905983 8.47438907623291 136 147 131
0.3087576627731323 0.37438270449638367 8.654664039611816 97 114 122
-0.36541181802749634 -0.17035697400569916 8.509321212768555 177 185 174
0.17946714162826538 -0.2706136405467987 8.460947036743164 169 182 154
0.13670654594898224 0.01912325993180275 8.437966346740723 124 133 128
0.8604551553726196 0.5890638828277588 9.16329288482666 114 102 116
0.28905364871025085 0.21944810450077057 8.57097053527832 133 160 167
0.555023193359375 0.3492327034473419 8.808627128601074 97 128 156
-0.4175946116447449 -0.2893584668636322 8.571615219116211 182 171 149
0.06199437752366066 0.05053676664829254 8.458863258361816 129 141 127
0.6368512511253357 -0.6809144616127014 9.153252601623535 112 93 86
0.418122261762619 -0.28632569313049316 8.546564102172852 161 164 143
0.4225497543811798 -0.374006450176239 8.603375434875488 128 131 112
-0.18964728713035583 0.33148619532585144 8.567483901977539 135 119 103
-0.16895732283592224 -0.4966824948787689 8.574949264526367 226 234 223
0.18793173134326935 -0.30770638585090637 8.490035057067871 178 181 160
0.5417233109474182 0.012616355903446674 8.628899574279785 117 125 112
0.4088671803474426 -0.18525546789169312 8.538945198059082 181 183 169
0.5731008648872375 -0.06088607758283615 8.648411750793457 33 42 41
0.574468731880188 -0.20758332312107086 8.651994705200195 145 134 112
0.16714420914649963 0.4336465001106262 8.644506454467773 106 125 119
0.12850148975849152 0.441240131855011 8.64625358581543 105 120 113
0.2932848036289215 0.20372167229652405 8.556055068969727 138 164 165
-0.4943060874938965 -0.04217361658811569 8.602721214294434 82 91 88
-0.26336342096328735 -0.21530064940452576 8.492351531982422 88 86 89
0.2599656879901886 0.4799802899360657 8.71662712097168 75 95 96
0.5789278745651245 -0.11372120678424835 8.638179779052734 122 119 110
0.46936488151550293 0.022207211703062057 8.589803695678711 146 136 124
0.7315144538879395 0.31137850880622864 9.150758743286133 27 27 39
0.6090630888938904 0.08405479043722153 8.742585182189941 126 127 122
0.27693378925323486 -0.1844741702079773 8.485296249389648 75 78 67
0.16770648956298828 -0.556168794631958 8.602200508117676 237 246 229
0.594315767288208 0.26891687512397766 8.794265747070312 40 50 77
0.023189131170511246 -0.13186484575271606 8.441933631896973 59 60 54
0.05405401065945625 -0.6402124166488647 8.66460132598877 240 250 239
0.5747283101081848 0.33213987946510315 8.821850776672363 22 61 92
0.2750042974948883 -0.10107121616601944 8.482274055480957 163 174 160
0.6273638010025024 -0.2260035127401352 8.728522300720215 51 46 50
-0.06629806756973267 -0.8870277404785156 9.185688972473145 28 30 27
0.3556237816810608 -0.2843748927116394 8.546159744262695 182 196 179
0.5122257471084595 0.4706668257713318 8.889232635498047 33 33 45
0.6647037863731384 0.035732585936784744 8.753480911254883 94 85 88
0.2782388925552368 0.4111419916152954 8.669572830200195 94 120 119
-0.4897763133049011 -0.4607243835926056 8.717142105102539 195 178 158
0.5376721024513245 -0.016654180362820625 8.617673873901367 109 104 108
-0.17668618261814117 0.10701633989810944 8.496112823486328 150 164 151
0.5368567109107971 0.3267878592014313 8.781744003295898 103 134 154
-0.10568638145923615 0.3033592700958252 8.55277156829834 66 77 71
0.7222765684127808 -0.24017220735549927 8.870816230773926 118 97 76
-0.18826431035995483 0.029714282602071762 8.480175018310547 145 154 127
-0.22464552521705627 -0.34413501620292664 8.503342628479004 168 178 154
0.42992323637008667 0.32178667187690735 8.670812606811523 55 59 71
0.5906549692153931 0.34407952427864075 8.827102661132812 99 125 148
0.38416776061058044 -0.4988004267215729 8.643715858459473 145 156 139
0.05405401065945625 -0.6402124166488647 8.66460132598877 240 250 239
0.20577757060527802 -0.24040189385414124 8.471287727355957 190 207 189
-0.01946716010570526 -0.5660071969032288 8.593829154968262 238 247 230
0.5385699272155762 -0.5112156867980957 8.817337989807129 180 165 142
-0.4943060874938965 -0.04217361658811569 8.602721214294434 82 91 88
-0.0030947523191571236 -0.29309898614883423 8.456184387207031 180 187 156
0.1560228019952774 0.16164106130599976 8.500094413757324 123 140 132
0.023189131170511246 -0.13186484575271606 8.441933631896973 59 60 54
-0.1459534764289856 -0.2606484591960907 8.468439102172852 84 85 77
0.3002054691314697 -0.2082204818725586 8.492423057556152 191 216 195
0.0503816120326519 -0.3723042607307434 8.484688758850098 218 228 203
0.026681233197450638 -0.3356238007545471 8.473100662231445 207 215 192
-0.18578505516052246 -0.38376572728157043 8.506799697875977 202 211 182
-0.18826431035995483 0.029714282602071762 8.480175018310547 145 154 127
0.2188892811536789 -0.3974388539791107 8.523404121398926 203 215 195
0.18382622301578522 -0.8263514637947083 9.031835556030273 197 175 162
0.5608370304107666 -0.709332287311554 9.210420608520508 117 98 100
0.4421980082988739 -0.45255914330482483 8.650227546691895 171 181 157
0.09160688519477844 -0.1258663833141327 8.433601379394531 189 204 183
0.15119051933288574 -0.2712899446487427 8.460572242736816 196 211 192
-0.32397356629371643 0.2741389572620392 8.58646011352539 133 145 145
0.15415124595165253 -0.4411202371120453 8.521061897277832 190 197 179
0.012980978935956955 -0.5108082294464111 8.537858009338379 125 128 121
0.041947729885578156 -0.3539261817932129 8.469490051269531 75 82 74
0.23429559171199799 0.12957419455051422 8.507206916809082 123 141 143
0.14940036833286285 -0.20991790294647217 8.46426773071289 195 207 193
0.4579748809337616 0.4468000531196594 8.807826042175293 38 41 60
-0.039515476673841476 -0.568474292755127 8.591645240783691 214 218 201
0.3145010769367218 0.015044941566884518 8.505778312683105 163 175 171
0.1071079894900322 -0.40726014971733093 8.501654624938965 183 188 165
0.2004999816417694 -0.5620682835578918 8.61189079284668 237 250 232
0.023927852511405945 0.16778334975242615 8.47785472869873 135 148 130
-0.005849008914083242 -0.6482401490211487 8.666596412658691 244 250 238
0.4429403841495514 -0.5779707431793213 8.771064758300781 120 133 123
0.43449798226356506 -0.09227630496025085 8.538058280944824 120 105 86
0.08539438992738724 0.05803855508565903 8.461169242858887 165 183 171
-0.16805745661258698 0.20362170040607452 8.525853157043457 113 124 108
-0.3812732696533203 -0.39944222569465637 8.597456932067871 205 191 164
0.1071079894900322 -0.40726014971733093 8.501654624938965 183 188 165
0.7268487811088562 0.01391926221549511 8.89090633392334 122 112 100
0.3616580665111542 -0.5873892307281494 8.711833000183105 224 236 216
0.4429403841495514 -0.5779707431793213 8.771064758300781 120 133 123
-0.351783812046051 -0.21390482783317566 8.524364471435547 121 103 91
0.5914990305900574 -0.4487835466861725 8.811635971069336 178 147 118
0.6727116107940674 0.22091317176818848 8.931427955627441 113 141 152
0.2050631046295166 -0.45050957798957825 8.536809921264648 220 227 209
-0.28277939558029175 0.2727149426937103 8.583619117736816 139 156 150
0.11723567545413971 -0.2333955019712448 8.444560050964355 193 210 192
0.5011343359947205 -0.7130787372589111 9.21097469329834 76 58 58
0.13401570916175842 0.917575478553772 9.091979026794434 39 51 41
0.44091135263442993 0.10064307600259781 8.595571517944336 104 112 114
0.9390683174133301 -0.43793755769729614 9.065834999084473 126 107 100
0.4233096241950989 -0.07682298123836517 8.51321029663086 113 105 86
0.8801209330558777 0.5132507085800171 9.159053802490234 107 89 101
0.22829367220401764 -0.623972475528717 8.68093204498291 226 239 229
-0.32225552201271057 -0.4804462492465973 8.613411903381348 208 222 205
0.5005928874015808 -0.17414437234401703 8.590996742248535 118 119 105
0.41861677169799805 -0.24607796967029572 8.55147647857666 173 185 165
0.24200798571109772 -0.3834162652492523 8.517592430114746 85 89 92
0.6142514944076538 0.20281407237052917 8.773046493530273 30 41 47
-0.22187067568302155 -0.27073433995246887 8.448881149291992 152 155 146
0.4877810478210449 0.2598100006580353 8.690353393554688 32 48 63
0.5624707341194153 0.1026727557182312 8.666955947875977 152 167 170
-0.3545878231525421 -0.18554717302322388 8.524822235107422 101 86 83
0.33273959159851074 -0.7367824912071228 8.903129577636719 209 218 197
0.032131846994161606 -0.01724269799888134 8.466997146606445 135 147 127
0.5094254612922668 0.3761574625968933 8.806905746459961 35 34 52
0.40311604738235474 0.03646426275372505 8.53652572631836 157 176 157
0.7162684798240662 -0.406291127204895 9.046148300170898 59 41 41
-0.33556821942329407 -0.5904074311256409 8.713568687438965 223 203 192
-0.045882709324359894 0.18064673244953156 8.490409851074219 126 137 129
-0.18790116906166077 -0.26121336221694946 8.48362922668457 164 167 148
-0.00976491067558527 0.30229440331459045 8.562644004821777 151 169 157
0.5624707341194153 0.1026727557182312 8.666955947875977 152 167 170
0.5396939516067505 -0.048870839178562164 8.621530532836914 48 49 31
0.6991274952888489 -0.2398519068956375 8.812655448913574 141 111 100
-0.2593527138233185 -0.00497688353061676 8.49765396118164 140 151 134
-0.2994062006473541 0.02092161402106285 8.52500057220459 161 179 167
0.14163294434547424 -0.0638461783528328 8.443325996398926 152 158 132
0.7190686464309692 -0.8542737364768982 9.072543144226074 116 98 84
0.7413160800933838 0.774249255657196 9.252094268798828 70 60 59
-0.18806125223636627 -0.6281773447990417 8.67276668548584 103 111 114
0.25724244117736816 0.14031663537025452 8.520295143127441 155 176 171
-0.21970854699611664 -0.2917669713497162 8.488360404968262 184 197 179
0.35772666335105896 0.048900868743658066 8.549057960510254 162 174 170
0.8979161381721497 -0.22410568594932556 9.07862663269043 86 57 53
0.8532880544662476 0.7176719307899475 9.174778938293457 115 100 103
0.04260670766234398 -0.24526755511760712 8.449740409851074 180 190 156
0.020164020359516144 -0.5327385067939758 8.578876495361328 230 237 229
0.3820228576660156 0.35357868671417236 8.655477523803711 86 108 119
-0.14993740618228912 -0.22266320884227753 8.465729713439941 150 137 129
0.4724378287792206 -0.13421577215194702 8.582526206970215 68 74 60
0.4724378287792206 -0.13421577215194702 8.582526206970215 68 74 60
-0.2686874568462372 0.12014292925596237 8.514081954956055 152 175 167
-0.34469008445739746 -0.08511361479759216 8.493560791015625 165 175 166
0.7066013216972351 -0.2123384326696396 8.820439338684082 115 100 81
0.30789634585380554 -0.47781944274902344 8.600106239318848 215 231 220
0.31243225932121277 -0.3079914152622223 8.515997886657715 174 178 161
0.3233088254928589 0.18005886673927307 8.548423767089844 145 171 170
0.5417233109474182 0.012616355903446674 8.628899574279785 117 125 112
0.30694395303726196 0.43835023045539856 8.69676399230957 86 105 111
0.11611272394657135 0.3161240518093109 8.561942100524902 130 159 163
0.12012817710638046 -0.5819960832595825 8.620420455932617 225 243 221
-0.0030947523191571236 -0.29309898614883423 8.456184387207031 180 187 156
0.7117800116539001 0.2581517994403839 9.07087516784668 105 118 108
0.1625821590423584 -0.5273319482803345 8.572281837463379 222 232 207
-0.15932929515838623 0.38107794523239136 8.597763061523438 58 57 52
-0.2227003276348114 0.1441994309425354 8.530517578125 153 163 154
0.39958253502845764 -0.7859970927238464 9.253070831298828 64 52 56
0.4502904415130615 -0.18737775087356567 8.551421165466309 167 173 159
0.08717606961727142 -0.3035315275192261 8.46975040435791 182 188 150
-0.21154916286468506 -0.19785176217556 8.47732162475586 164 156 137
0.5608370304107666 -0.709332287311554 9.210420608520508 117 98 100
-0.18055495619773865 -0.1790616512298584 8.463007926940918 166 150 137
-0.5012401938438416 -0.021027274429798126 8.604512214660645 169 171 168
0.6918973326683044 -0.7809622287750244 9.146544456481934 138 114 110
-0.452038049697876 0.08642536401748657 8.579690933227539 119 130 124
0.7623546719551086 -0.4336046874523163 9.130407333374023 55 46 49
0.610115110874176 -0.24502307176589966 8.6842041015625 153 129 119
0.10548654943704605 -1.0948244333267212 9.40300178527832 127 110 103
0.5640339255332947 0.22164244949817657 8.737931251525879 127 161 160
0.7697750926017761 -0.6809071898460388 9.145011901855469 116 90 89
0.7413160800933838 0.774249255657196 9.252094268798828 70 60 59
0.8805668950080872 -0.15915556252002716 9.114543914794922 110 93 86
-0.07865395396947861 -0.2516375482082367 8.456297874450684 107 105 80
-0.19775106012821198 -0.6960573196411133 8.742509841918945 220 235 214
0.9208613038063049 -0.43552300333976746 9.064162254333496 92 71 66
0.44870641827583313 -0.7245193719863892 9.092928886413574 187 196 165
-0.18064601719379425 -0.9689732789993286 9.242326736450195 37 38 42
0.6118800640106201 -0.30428653955459595 8.719196319580078 98 89 84
0.344110369682312 -0.5916443467140198 8.701501846313477 148 152 138
0.3999054729938507 -0.7843291163444519 9.252196311950684 64 52 56
-0.02601036988198757 0.4627566933631897 8.623411178588867 79 72 66
0.22368957102298737 -0.33595526218414307 8.5056791305542 169 178 157
0.6979212760925293 -0.7571271657943726 9.138165473937988 98 78 77
0.6379086971282959 -0.00776328518986702 8.72747802734375 35 38 45
-0.3670194149017334 -0.4399372637271881 8.582850456237793 187 170 150
-0.11302988976240158 -1.1046147346496582 9.291757583618164 110 109 107
0.695457398891449 -0.44945767521858215 9.000614166259766 155 125 99
0.38957974314689636 0.5018764734268188 8.810281753540039 66 67 71
0.136073037981987 0.13901479542255402 8.487751960754395 152 176 176
-0.37390434741973877 -0.2939422130584717 8.546101570129395 175 166 149
0.6209607124328613 -0.871310293674469 9.180910110473633 93 79 76
0.452985018491745 0.39370962977409363 8.759211540222168 98 99 104
-0.35568878054618835 -0.45262911915779114 8.599590301513672 103 88 83
0.45956698060035706 0.23220588266849518 8.639837265014648 134 151 158
0.5267170667648315 -0.26073217391967773 8.626338005065918 101 105 82
0.40934714674949646 0.44879767298698425 8.76989459991455 63 63 75
-0.3388793170452118 -0.520016610622406 8.637340545654297 222 225 208
-0.2782602608203888 -0.2602626085281372 8.492931365966797 178 184 172
0.05867050215601921 -0.3914613127708435 8.503028869628906 172 181 152
0.29733991622924805 0.39081141352653503 8.650708198547363 48 57 62
0.8392230272293091 0.6669844388961792 9.180081367492676 68 58 66
0.6918973326683044 -0.7809622287750244 9.146544456481934 138 114 110
0.10418211668729782 0.8295454978942871 9.090825080871582 44 53 52
0.1791987270116806 -0.5300502777099609 8.582840919494629 221 233 213
0.7463961243629456 -0.2045140266418457 8.909460067749023 122 100 77
0.4579748809337616 0.4468000531196594 8.807826042175293 38 41 60
0.26329413056373596 -0.06095341220498085 8.500051498413086 157 168 160
0.4260711371898651 -0.4196223020553589 8.618353843688965 194 202 187
0.9541561007499695 -0.42187395691871643 9.075081825256348 104 80 78
0.4545503258705139 0.19269153475761414 8.635804176330566 138 158 169
0.3963915705680847 0.16746920347213745 8.5975980758667 145 161 161
0.0400380939245224 0.5361436605453491 8.751298904418945 75 67 64
0.6121299862861633 0.10397213697433472 8.715228080749512 42 54 68
-0.19781216979026794 -0.2808629870414734 8.498862266540527 102 107 100
0.4580949544906616 -0.20846451818943024 8.580167770385742 57 69 49
0.537809431552887 0.35619065165519714 8.795008659362793 101 131 155
0.5314655303955078 0.44476810097694397 8.872345924377441 27 43 59
0.6410335898399353 -0.3090638220310211 8.745879173278809 113 83 73
0.33446556329727173 0.2619451880455017 8.58990478515625 101 124 130
0.0667344182729721 0.20715175569057465 8.514994621276855 156 180 164
0.8412203788757324 -0.32802945375442505 9.121131896972656 109 89 91
0.44002634286880493 0.25570693612098694 8.653995513916016 84 103 120
-0.09463977068662643 -0.7432411909103394 8.755247116088867 227 238 224
0.08217737823724747 0.03693500533699989 8.46044921875 174 188 175
-0.3259836435317993 -0.07547254115343094 8.50479793548584 63 69 69
-0.424358993768692 0.3368619382381439 8.678619384765625 119 127 112
0.268283873796463 -0.48405420780181885 8.581811904907227 216 235 216
0.9066738486289978 -0.6229701638221741 9.076451301574707 137 121 121
0.9364197254180908 -0.5393452644348145 9.116509437561035 112 95 87
0.6052449345588684 0.025191308930516243 8.68479061126709 42 58 55
-0.1403506100177765 -0.5468240976333618 8.620627403259277 229 239 228
-0.060768477618694305 0.2913327217102051 8.531599044799805 64 72 75
0.13330845534801483 -0.09000186622142792 8.445362091064453 190 198 177
0.15322652459144592 -0.050563693046569824 8.452522277832031 189 202 184
0.2940328121185303 -0.6042656898498535 8.710738182067871 219 237 215
0.013028256595134735 -1.0263848304748535 9.479601860046387 88 71 61
0.6267169117927551 0.009682802483439445 8.717447280883789 126 125 97
0.9094194769859314 -0.3075426518917084 9.090197563171387 88 68 67
0.23849846422672272 -0.7598388195037842 8.873605728149414 235 240 217
-0.37000328302383423 -0.43986427783966064 8.589619636535645 191 175 152
-0.18806125223636627 -0.6281773447990417 8.67276668548584 103 111 114
0.26605769991874695 -0.6813443303108215 8.786824226379395 219 224 201
0.06199437752366066 0.05053676664829254 8.458863258361816 129 141 127
-0.15477930009365082 -0.6778181791305542 8.727005004882812 233 243 234
-0.5491544008255005 -0.050129227340221405 8.628195762634277 165 172 165
0.6647229194641113 0.16013413667678833 8.817887306213379 117 131 140
0.10682181268930435 0.41163936257362366 8.622228622436523 95 113 123
0.29302626848220825 -0.7998659014701843 9.07509994506836 191 172 157
0.5515533089637756 -0.3235952854156494 8.662447929382324 177 165 151
0.7328311204910278 -0.02122112177312374 8.886209487915039 128 114 101
0.30789634585380554 -0.47781944274902344 8.600106239318848 215 231 220
-0.4532317817211151 0.004823536612093449 8.568429946899414 160 173 156
-0.47414374351501465 -0.10473805665969849 8.574990272521973 157 169 147
0.1789841502904892 -0.228083997964859 8.461448669433594 196 208 186
0.5987944006919861 0.21818238496780396 8.7601318359375 124 149 145
0.5939921736717224 -0.23756904900074005 8.68065357208252 153 133 122
-0.5762903690338135 0.17655877768993378 8.695880889892578 117 112 119
0.6083932518959045 -0.4584399163722992 8.833478927612305 146 120 95
0.2589619755744934 -0.7033729553222656 8.838714599609375 153 156 149
0.03230966255068779 0.5837163925170898 8.787288665771484 63 62 60
0.36975976824760437 -0.5318101048469543 8.667119026184082 147 153 139
0.7658686637878418 -0.3523293137550354 9.126703262329102 48 38 36
-0.10474727302789688 0.23481500148773193 8.533507347106934 116 132 122
0.45784515142440796 -0.14458231627941132 8.557745933532715 152 162 154
0.7537457346916199 0.14237502217292786 9.067278861999512 78 65 57
0.37461984157562256 0.5334242582321167 8.843923568725586 63 64 66
-0.0620633102953434 -0.13837194442749023 8.447027206420898 170 187 171
-0.09845305234193802 -0.978289783000946 9.301239967346191 28 30 29
-0.04291914775967598 0.4536169767379761 8.627028465270996 54 48 52
-0.34675195813179016 -0.6064895391464233 8.717769622802734 110 97 91
0.7293649911880493 -0.2217397391796112 8.847467422485352 53 51 52
-0.02601036988198757 0.4627566933631897 8.623411178588867 79 72 66
-0.33120837807655334 -0.16063176095485687 8.522908210754395 173 182 165
-0.48719456791877747 -0.20347018539905548 8.598854064941406 187 191 176
0.6689422726631165 -0.020886557176709175 8.762094497680664 142 127 120
0.5512846112251282 -0.4746008813381195 8.756690979003906 112 100 86
0.547241747379303 -0.5568169951438904 8.81659984588623 183 153 127
-0.46667009592056274 -0.27928972244262695 8.593354225158691 174 156 132
0.861784815788269 -0.7018293142318726 9.080805778503418 121 106 113
0.03759784996509552 0.171918585896492 8.4982328414917 154 174 163
-0.2593527138233185 -0.00497688353061676 8.49765396118164 140 151 134
-0.2480219155550003 -0.6171764731407166 8.67184066772461 93 95 94
-0.42678776383399963 -0.1926262229681015 8.574430465698242 185 188 171
0.5279656052589417 0.02263108268380165 8.623629570007324 35 40 46
0.07120200991630554 -0.6016432046890259 8.633371353149414 241 254 228
-0.32357197999954224 0.29001322388648987 8.60591983795166 67 76 83
0.5352153182029724 0.4111325144767761 8.840373039245605 71 84 100
0.6170244812965393 -0.3897591531276703 8.759503364562988 177 149 127
-0.04151253402233124 -0.19456139206886292 8.438186645507812 189 211 190
-0.2257496565580368 1.0643973350524902 9.415506362915039 43 47 46
0.7898244857788086 -0.7386801838874817 9.032073020935059 137 119 119
-0.434720903635025 0.35713261365890503 8.696419715881348 80 85 79
-0.15076610445976257 -0.2816931903362274 8.47443962097168 193 196 179
-0.32479652762413025 -0.062003616243600845 8.550895690917969 159 173 158
0.14091163873672485 0.2759080231189728 8.556303024291992 148 170 168
0.09973321855068207 0.9647951722145081 9.174036979675293 11 16 12
0.39378049969673157 -0.6536375284194946 8.811969757080078 196 199 178
0.0537596195936203 -0.09752283990383148 8.426858901977539 148 153 146
0.33034348487854004 -0.8147514462471008 9.285533905029297 53 49 50
-0.31668421626091003 -0.09583339840173721 8.50285530090332 153 163 154
0.3563893139362335 0.6086295247077942 8.91395378112793 27 25 30
0.268283873796463 -0.48405420780181885 8.581811904907227 216 235 216
0.7378533482551575 0.25705233216285706 9.135604858398438 37 46 51
0.675601601600647 -0.7046570181846619 9.150629043579102 125 106 102
0.6550519466400146 0.18956495821475983 8.81955337524414 123 143 154
0.524239182472229 -0.04182032495737076 8.61960506439209 132 125 106
0.10270292311906815 -0.69969642162323 8.73129653930664 221 232 218
-0.3248607814311981 -0.2888193726539612 8.520142555236816 72 76 75
-0.29858604073524475 0.12576183676719666 8.486781120300293 156 173 167
0.41484183073043823 0.13694541156291962 8.584721565246582 143 163 161
0.4502904415130615 -0.18737775087356567 8.551421165466309 167 173 159
0.12851081788539886 -0.02579226717352867 8.459623336791992 167 185 173
-0.027756907045841217 -0.38279426097869873 8.465635299682617 184 198 165
0.42448028922080994 0.4856867492198944 8.828604698181152 70 63 71
0.3563893139362335 0.6086295247077942 8.91395378112793 27 25 30
0.680558443069458 0.32712215185165405 9.080430030822754 83 109 106
0.5853161811828613 -0.03120507299900055 8.64480209350586 47 55 57
-0.042672645300626755 -0.31823021173477173 8.473167419433594 211 223 203
-0.002178733702749014 -0.2147720456123352 8.416943550109863 158 171 153
0.05671357363462448 -1.0481007099151611 9.427617073059082 107 88 74
0.28354930877685547 -0.637287437915802 8.722460746765137 211 215 188
-0.33432018756866455 0.15010935068130493 8.550710678100586 101 116 111
0.5175712704658508 -0.8415010571479797 9.230839729309082 143 125 121
-0.3206785321235657 -0.3082161843776703 8.554009437561035 164 173 156
-0.08776694536209106 1.0772823095321655 9.409493446350098 18 28 29
-0.3026934266090393 -0.031515929847955704 8.509506225585938 164 178 161
-0.16730670630931854 0.4723042845726013 8.655613899230957 52 45 39
0.11723567545413971 -0.2333955019712448 8.444560050964355 193 210 192
0.37790757417678833 0.3821765184402466 8.70846176147461 49 55 55
0.10089906305074692 -0.7977116703987122 8.883804321289062 225 210 181
0.5043641328811646 -0.11650895327329636 8.595284461975098 137 137 113
0.0418148934841156 0.2030257135629654 8.516650199890137 167 179 175
0.8269409537315369 -0.6943086385726929 9.099056243896484 99 73 72
-0.43098101019859314 -0.5756210088729858 8.749136924743652 206 187 172
0.639227032661438 -0.12730413675308228 8.714377403259277 76 57 50
0.786931574344635 -0.752069890499115 9.105880737304688 135 119 119
-0.16620874404907227 -0.615961492061615 8.669893264770508 221 231 222
-0.0986190214753151 -0.2002164125442505 8.446825981140137 133 116 100
0.24512135982513428 -0.03486425802111626 8.491434097290039 133 140 132
0.13459788262844086 -0.9726295471191406 9.381969451904297 95 84 82
-0.15932929515838623 0.38107794523239136 8.597763061523438 58 57 52
-0.0864143818616867 1.0176962614059448 9.360106468200684 57 62 58
-0.008618353866040707 -0.18031437695026398 8.449833869934082 187 201 184
0.2788374423980713 -0.34387174248695374 8.51901626586914 163 175 155
0.027173876762390137 -0.6378405690193176 8.641997337341309 214 223 204
0.18793173134326935 -0.30770638585090637 8.490035057067871 178 181 160
-0.42799240350723267 -0.3972664475440979 8.627082824707031 196 171 151
0.5262988805770874 0.5182358622550964 8.964150428771973 82 105 111
-0.17110513150691986 -0.684890627861023 8.740713119506836 234 242 231
0.6439729928970337 -0.22624045610427856 8.779004096984863 52 43 48
0.37461984157562256 0.5334242582321167 8.843923568725586 63 64 66
0.26406461000442505 -0.008296680636703968 8.482955932617188 112 122 113
0.41276419162750244 -0.8977305889129639 9.278695106506348 77 67 65
0.6412584185600281 0.016398729756474495 8.727267265319824 64 48 51
-0.22491158545017242 -0.6288612484931946 8.687294960021973 130 140 141
0.1718730330467224 -1.0647587776184082 9.346245765686035 119 106 98
0.043477561324834824 -0.48488494753837585 8.548233985900879 213 228 205
0.18243147432804108 -0.5639292597770691 8.609169006347656 108 119 111
-0.10703223198652267 0.10557901859283447 8.475804328918457 61 68 61
0.7658366560935974 -0.21599772572517395 9.073742866516113 57 38 42
-0.5604071617126465 -0.028691651299595833 8.626569747924805 67 72 75
-0.2521986663341522 0.34668463468551636 8.60289192199707 125 117 106
-0.14124174416065216 0.28373199701309204 8.528938293457031 114 128 113
-0.3574395179748535 -0.5355432033538818 8.66167163848877 169 153 130
0.8805668950080872 -0.15915556252002716 9.114543914794922 110 93 86
0.0003263865364715457 0.017518844455480576 8.443961143493652 138 149 133
0.3363802433013916 0.3172203600406647 8.673675537109375 95 114 120
-0.5638712644577026 -0.0861687883734703 8.635960578918457 161 173 163
0.07677572220563889 -0.28520509600639343 8.428657531738281 195 209 196
0.29427218437194824 0.5508091449737549 8.79080581665039 53 59 57
0.09973321855068207 0.9647951722145081 9.174036979675293 11 16 12
-0.12379369884729385 -0.409993439912796 8.517409324645996 187 196 177
0.4871959686279297 0.30141985416412354 8.705449104309082 57 64 72
0.46265941858291626 -0.10985180735588074 8.56225299835205 163 149 120
0.28811028599739075 0.9171688556671143 9.07791519165039 33 44 48
-0.30093464255332947 -0.42918720841407776 8.577174186706543 206 218 196
0.6165445446968079 0.010057084262371063 8.674636840820312 140 146 142
0.32768428325653076 -0.003869101172313094 8.52139949798584 142 168 157
-0.217767134308815 -0.11336223781108856 8.485724449157715 140 139 118
-0.006363224238157272 -0.16231104731559753 8.455078125 152 162 153
-0.35261431336402893 0.30543455481529236 8.64064884185791 120 121 113
0.17902134358882904 0.5626146793365479 8.7588472366333 73 74 66
-0.33432018756866455 0.15010935068130493 8.550710678100586 101 116 111
-0.3456571698188782 -0.15121138095855713 8.517852783203125 85 96 90
0.021054914221167564 0.017293047159910202 8.449920654296875 169 174 167
0.6716312766075134 -0.37329161167144775 8.915586471557617 151 121 95
0.5532017946243286 -0.4157158136367798 8.73825454711914 55 49 49
-0.3852066993713379 0.4422531723976135 8.731606483459473 125 137 123
-0.37129470705986023 0.25597503781318665 8.586172103881836 134 156 154
0.7041223645210266 -0.05525552108883858 8.862387657165527 133 116 98
0.06057698652148247 0.5884263515472412 8.766246795654297 65 61 60
0.41829124093055725 0.3389774262905121 8.670228958129883 48 52 61
0.07343751192092896 -0.5739429593086243 8.60783863067627 201 208 177
0.05767405033111572 -0.3131639361381531 8.472980499267578 198 206 193
0.5626521706581116 -0.9599591493606567 9.173846244812012 128 109 103
0.574065089225769 -0.4104379117488861 8.731746673583984 159 152 134
-0.2224951982498169 0.3800896108150482 8.599968910217285 116 104 88
-0.5405647158622742 -0.6370723247528076 8.859394073486328 90 80 79
0.3091115951538086 -0.2662447690963745 8.524280548095703 182 200 174
-0.298874169588089 -0.8972211480140686 9.363729476928711 32 39 49
0.7315892577171326 0.18189001083374023 8.975590705871582 105 113 126
-0.35526782274246216 0.22563625872135162 8.579072952270508 122 134 132
-0.07332801073789597 0.31107157468795776 8.549219131469727 136 147 130
0.2404358834028244 0.38693782687187195 8.645288467407227 95 119 119
0.36542245745658875 -0.9816346764564514 9.275453567504883 104 76 73
-0.16939584910869598 -0.29449620842933655 8.485331535339355 104 110 98
-0.4787278175354004 -0.08196806907653809 8.584434509277344 108 110 107
0.7964112758636475 -0.5285282731056213 9.109594345092773 108 88 77
-0.5180253386497498 -0.37130847573280334 8.674566268920898 193 187 165
0.4034869372844696 0.14933238923549652 8.5812349319458 104 123 121
-0.2910449802875519 -0.5241973400115967 8.654158592224121 198 209 179
0.6366684436798096 0.1534162163734436 8.775700569152832 120 145 149
0.4187948405742645 -0.974311888217926 9.256092071533203 123 102 97
0.6008902192115784 0.29692625999450684 8.8141508102417 105 128 146
-0.16824932396411896 -1.0727653503417969 9.211379051208496 127 136 141
-0.22929929196834564 0.013994256034493446 8.478245735168457 151 159 138
0.5329129695892334 0.3924817144870758 8.815396308898926 37 50 59
0.10779526084661484 -0.7243013978004456 8.762639045715332 172 178 174
-0.04157857224345207 0.43500491976737976 8.624859809875488 93 69 69
0.3743134140968323 -0.624221920967102 8.782716751098633 187 192 172
0.07227469980716705 0.8793385028839111 9.146685600280762 71 63 50
0.5532017946243286 -0.4157158136367798 8.73825454711914 55 49 49
0.1262589991092682 0.4230518043041229 8.625165939331055 43 57 60
-0.15477930009365082 -0.6778181791305542 8.727005004882812 233 243 234
0.14361579716205597 0.6125041246414185 8.80601978302002 49 48 44
0.856551468372345 0.33261874318122864 9.133334159851074 82 69 76
0.4135890305042267 -0.3652852773666382 8.583364486694336 196 206 181
0.4033263921737671 -0.8269550800323486 9.275043487548828 73 64 65
0.5378349423408508 -0.24200032651424408 8.66506290435791 151 134 118
-0.29119873046875 0.3009112477302551 8.602450370788574 74 75 70
0.7856343984603882 -0.723327100276947 9.10287857055664 103 75 71
0.7882475256919861 -0.7038399577140808 9.105653762817383 145 120 116
-0.24203123152256012 -0.6843095421791077 8.754815101623535 234 241 225
-0.2319529503583908 -0.17872165143489838 8.47806167602539 96 89 81
-0.19570496678352356 -0.6386451125144958 9.000516891479492 217 228 212
0.6918973326683044 -0.7809622287750244 9.146544456481934 138 114 110
0.7482823729515076 -0.21771001815795898 8.971278190612793 56 46 45
0.4344409704208374 -0.39022698998451233 8.604989051818848 200 206 180
0.8147733807563782 -0.5288466215133667 9.099852561950684 107 81 80
0.7882475256919861 -0.7038399577140808 9.105653762817383 145 120 116
0.35417744517326355 -0.5689337849617004 8.68453311920166 146 147 141
-0.12883934378623962 -0.1613326072692871 8.481368064880371 130 112 98
0.4861833155155182 -0.1195499524474144 8.579712867736816 180 174 152
0.166318878531456 0.8704897165298462 9.184130668640137 33 33 31
0.15741555392742157 0.9786263704299927 9.129593849182129 103 106 87
-0.04623928666114807 -0.6760627627372742 8.693962097167969 245 255 242
0.6264514923095703 -0.8525073528289795 9.160627365112305 141 124 117
0.8126294016838074 -0.32444554567337036 9.10765266418457 51 39 41
-0.07846689224243164 0.4754651188850403 8.629594802856445 95 86 81
0.7576199173927307 0.5021957755088806 9.194937705993652 67 58 53
0.9192001819610596 0.5317614674568176 9.322261810302734 116 141 145
0.24512135982513428 -0.03486425802111626 8.491434097290039 133 140 132
-0.43290191888809204 0.1867160201072693 8.608884811401367 144 157 148
-0.1842467039823532 0.43058207631111145 8.636214256286621 57 49 46
0.48998191952705383 -0.5790227055549622 8.823491096496582 84 90 78
-0.17601922154426575 -1.0341788530349731 9.202896118164062 33 45 43
0.7315892577171326 0.18189001083374023 8.975590705871582 105 113 126
-0.2528187334537506 -0.5371829867362976 8.630536079406738 200 208 185
0.09075003117322922 -0.6112020611763 8.62899112701416 196 212 183
0.6573956608772278 -0.30027326941490173 8.780956268310547 149 125 97
0.5109332799911499 0.052964892238378525 8.625054359436035 119 123 109
0.5794013142585754 -0.8191152811050415 9.201231002807617 91 73 69
0.6659005880355835 0.37048986554145813 9.09043025970459 43 55 55
-0.452038049697876 0.08642536401748657 8.579690933227539 119 130 124
-0.030626052990555763 0.36980852484703064 8.586981773376465 114 113 92
0.7315531373023987 -0.7441073060035706 9.131174087524414 102 73 77
0.6474656462669373 -0.1070886179804802 8.739501953125 117 104 88
-0.5673331022262573 -0.26522552967071533 8.664726257324219 182 178 153
-0.5435588359832764 -0.18521496653556824 8.62230396270752 138 145 129
0.16570019721984863 0.24144864082336426 8.595457077026367 147 177 177
0.1361866444349289 -0.07761994004249573 8.446990966796875 182 189 181
0.8043531179428101 -0.7715901136398315 9.10563850402832 88 78 76
-0.008541857823729515 0.5296820402145386 8.698399543762207 68 64 61
0.13381525874137878 0.39402472972869873 8.60155963897705 125 141 141
0.36542245745658875 -0.9816346764564514 9.275453567504883 104 76 73
-0.03819441795349121 0.209859699010849 8.473393440246582 119 131 117
-0.07866425067186356 -0.42147883772850037 8.499933242797852 206 217 203
0.8755494952201843 0.2009963095188141 9.126138687133789 62 48 47
-0.3873864710330963 0.17239636182785034 8.595500946044922 160 171 154
