ply
format ascii 1.0
element vertex 695
property float x
property float y
property float z
property uchar red
property uchar green
property uchar blue
end_header
-0.18417778611183167 0.30478227138519287 6.405570030212402 46 42 41
0.35368117690086365 -0.12518620491027832 6.306908130645752 177 186 159
0.3741169571876526 -0.054994311183691025 6.327615737915039 184 202 186
0.22150668501853943 -0.1732107698917389 6.390130043029785 168 178 151
0.36134979128837585 -0.26878777146339417 6.216408729553223 218 222 208
0.31975072622299194 -0.17862004041671753 6.3282670974731445 169 177 156
-0.18399305641651154 0.8438187837600708 6.418888092041016 85 64 63
-0.4494616687297821 -0.5525733828544617 6.497178554534912 94 99 79
0.349629670381546 -0.0160650834441185 6.364797592163086 138 142 119
0.16269166767597198 0.19076786935329437 6.434085845947266 127 151 163
0.1349795162677765 -0.027490178123116493 6.470218181610107 37 42 36
-0.2144012600183487 0.6358612179756165 6.4422454833984375 112 101 105
0.02902250923216343 -0.20132635533809662 6.422591686248779 184 158 135
0.10415825247764587 -0.4586073160171509 6.04813814163208 201 183 163
0.04240107536315918 0.2696835398674011 6.426604747772217 93 127 154
0.368996798992157 0.08066770434379578 6.329141139984131 171 185 170
0.3623376190662384 -0.12134355306625366 6.31166934967041 175 184 163
0.37030714750289917 0.05106000974774361 6.336542129516602 120 127 120
-0.295551061630249 0.4905199408531189 6.422236919403076 141 162 167
-0.5155367851257324 -0.0827266052365303 6.643852710723877 227 221 197
-0.10135139524936676 -0.6220945119857788 5.978704929351807 117 100 93
0.3268570899963379 0.9779185652732849 6.232663154602051 26 26 26
0.1988445520401001 0.1023327186703682 6.4362030029296875 142 166 166
0.2783254384994507 0.15186190605163574 6.381545543670654 138 163 160
0.6020532846450806 0.741258978843689 5.314789772033691 181 172 155
0.35368117690086365 -0.12518620491027832 6.306908130645752 177 186 159
0.28321573138237 -0.19981829822063446 6.347131252288818 208 220 198
-0.38099050521850586 -0.3332332670688629 6.462100028991699 125 147 145
0.2946361303329468 -0.200001522898674 6.335308074951172 214 219 199
0.15641115605831146 0.0380091592669487 6.453444004058838 46 40 50
0.3036991059780121 -0.20831693708896637 6.329710483551025 82 91 88
-0.20487287640571594 -0.15737110376358032 6.37925386428833 43 38 35
-0.5524190664291382 0.6684699058532715 6.569605350494385 164 228 255
0.18798372149467468 -0.08516983687877655 6.432962894439697 177 186 165
0.06920517235994339 0.18561580777168274 6.45065450668335 135 149 160
0.5001419186592102 0.7697345614433289 5.651904106140137 181 197 210
0.45525577664375305 0.0844859629869461 6.218173503875732 170 187 179
-0.13336294889450073 -0.5421389937400818 6.010844707489014 105 86 82
0.4169006943702698 -0.2295914590358734 6.145496845245361 205 218 201
0.3036991059780121 -0.20831693708896637 6.329710483551025 82 91 88
0.026710519567131996 -0.20839732885360718 6.442984104156494 181 147 119
-0.13453982770442963 -0.22830037772655487 6.362919807434082 154 131 97
0.37030714750289917 0.05106000974774361 6.336542129516602 120 127 120
0.402228981256485 -0.004836004227399826 6.287991523742676 169 181 169
0.35685911774635315 0.24149411916732788 6.278502941131592 137 156 160
0.5333020687103271 -0.087306909263134 6.017688751220703 180 167 148
-0.24005518853664398 0.09090157598257065 6.448470115661621 85 73 73
-0.2114088386297226 0.45719006657600403 6.444125175476074 76 54 56
0.19327758252620697 0.035105668008327484 6.44528865814209 52 43 44
0.29545357823371887 0.04445195943117142 6.3835062980651855 156 168 166
-0.3850172758102417 0.933890163898468 6.421703338623047 63 94 123
0.4087451100349426 -0.0662902444601059 6.284343242645264 174 176 173
0.42959916591644287 0.042169902473688126 6.273783206939697 119 145 120
0.45825135707855225 -0.19761091470718384 6.132077693939209 190 199 178
0.4612237513065338 -0.030180228874087334 6.214087963104248 173 181 160
0.17067411541938782 0.16020038723945618 6.446264743804932 108 135 146
0.18051734566688538 -0.20915979146957397 6.388902187347412 207 212 189
-0.18668188154697418 -0.6318912506103516 6.254005432128906 67 56 62
0.0428590402007103 0.980433464050293 6.095383644104004 51 53 52
-0.12462049722671509 -0.6225763559341431 5.8611297607421875 106 95 93
0.307111918926239 0.09641381353139877 6.3785810470581055 150 170 168
0.41974642872810364 -0.015599135309457779 6.277888774871826 163 176 156
0.17336668074131012 -0.2728712558746338 6.361246109008789 225 232 216
0.312856525182724 -0.19585199654102325 6.326258659362793 215 223 202
0.18277409672737122 0.30416905879974365 6.3655619621276855 33 37 48
0.32589977979660034 0.04891791567206383 6.359616756439209 159 174 167
0.5511244535446167 0.010487372055649757 5.925892353057861 164 166 165
0.4223015308380127 0.8909135460853577 6.088508129119873 172 166 132
0.2773170471191406 -0.2775132358074188 6.294090747833252 215 227 205
0.12617087364196777 0.001568034989759326 6.467972278594971 33 42 39
-0.36896640062332153 0.7583190202713013 6.420636177062988 113 101 115
-0.3395548164844513 0.5703204274177551 6.416476726531982 130 147 155
-0.19883993268013 -0.6436038613319397 6.4093337059021 87 90 73
0.3956310451030731 0.14485879242420197 6.283163547515869 110 130 129
-0.08508047461509705 -0.5583458542823792 5.815835952758789 104 87 77
0.4387507140636444 -0.06868083775043488 6.234670162200928 154 163 146
0.21222573518753052 0.3635348975658417 6.312705039978027 29 39 49
0.14320234954357147 -0.001043711556121707 6.468298435211182 105 115 107
0.5884798765182495 0.7404925227165222 5.429956912994385 177 178 172
0.22942981123924255 0.170040562748909 6.4147162437438965 144 165 170
0.5332959294319153 -0.07506167143583298 6.029840469360352 104 92 94
0.20093072950839996 -0.0495794303715229 6.445371627807617 69 76 68
0.11038629710674286 0.04974741488695145 6.465893745422363 157 176 170
0.30383118987083435 -0.25750410556793213 6.281093120574951 193 201 162
0.015949111431837082 0.27624860405921936 6.424600124359131 83 120 147
0.17751745879650116 0.173658087849617 6.436508655548096 31 45 54
0.31593966484069824 0.7642800211906433 5.705837249755859 156 130 103
-0.22973522543907166 0.9227120280265808 6.442948818206787 63 87 111
0.11794405430555344 -0.2117542177438736 6.4130859375 178 178 150
-0.18896019458770752 1.1503444910049438 6.416353225708008 29 33 42
0.1949007660150528 -0.19895534217357635 6.395888805389404 125 127 106
-0.2281508594751358 -0.3356313109397888 6.476802825927734 136 117 121
-0.32558903098106384 -0.5667691826820374 6.494948387145996 134 149 146
0.3625214695930481 -0.2795911133289337 6.203574180603027 210 220 196
0.30960673093795776 1.0458320379257202 6.285922527313232 133 134 118
0.4795275926589966 0.21341323852539062 6.115675449371338 142 154 150
0.08209599554538727 0.1098896935582161 6.468353271484375 37 50 69
-0.19741879403591156 -0.5863792896270752 6.270592212677002 109 89 88
0.13296063244342804 0.11873462796211243 6.464055061340332 142 166 166
-0.2176247239112854 0.4411464333534241 6.458828926086426 107 103 104
0.055829595774412155 0.2604948580265045 6.42678689956665 23 48 79
-0.40866753458976746 -0.3180202543735504 6.473740577697754 125 106 99
0.4225713908672333 -0.2722793519496918 6.089837074279785 218 228 220
0.14373882114887238 -0.041832298040390015 6.474461078643799 45 50 43
0.5001419186592102 0.7697345614433289 5.651904106140137 181 197 210
0.4712827801704407 0.9436487555503845 6.08119010925293 143 175 154
-0.3460555672645569 0.47114622592926025 6.42271614074707 121 140 146
-0.19741879403591156 -0.5863792896270752 6.270592212677002 109 89 88
0.20119640231132507 -0.09597828984260559 6.43107271194458 67 73 63
0.1528022736310959 0.046968840062618256 6.464498043060303 129 132 123
-0.17643782496452332 -0.6359444856643677 6.183182239532471 118 108 119
0.062163095921278 -0.21012195944786072 6.425961971282959 75 71 62
0.030333202332258224 -0.23717273771762848 6.415718078613281 179 148 127
0.24852754175662994 1.0322154760360718 6.25935173034668 155 158 139
0.33827945590019226 0.12967953085899353 6.335274696350098 156 177 180
0.23264072835445404 0.032706983387470245 6.429696559906006 141 129 103
0.13159622251987457 0.8622923493385315 5.865924835205078 67 73 63
0.2512296438217163 -0.32558006048202515 6.266122341156006 199 211 189
0.1550169587135315 0.20759889483451843 6.429548740386963 41 47 59
0.46052807569503784 -0.2578788995742798 5.9966325759887695 217 227 216
-0.2554583251476288 0.025536032393574715 6.48087739944458 77 77 85
0.17067411541938782 0.16020038723945618 6.446264743804932 108 135 146
0.2250729501247406 -0.1459835171699524 6.412028789520264 163 171 148
0.49339234828948975 -0.033433910459280014 6.120835781097412 128 136 123
0.4734359085559845 0.002238712040707469 6.200555324554443 176 189 179
0.407517671585083 0.27111077308654785 6.223324775695801 74 74 66
0.22944138944149017 0.3538469970226288 6.302541255950928 69 95 92
0.39512011408805847 0.13360953330993652 6.291304588317871 148 167 173
0.48274683952331543 0.896230936050415 5.976301193237305 191 191 165
-0.4501247704029083 -0.5965043306350708 6.501044273376465 92 92 68
0.2340536117553711 -0.4041406214237213 6.143889427185059 227 238 224
0.010184282436966896 -0.5354922413825989 5.85172176361084 37 27 25
-0.2089851349592209 -0.5816039443016052 6.438777923583984 38 35 42
0.44560644030570984 0.11324980109930038 6.251272678375244 152 166 167
-0.2081124633550644 -0.27476993203163147 6.401937484741211 111 91 82
0.5287039875984192 0.0022434773854911327 6.066178798675537 160 173 163
-0.14013591408729553 1.0950301885604858 6.234877109527588 31 30 26
-0.35438087582588196 0.9473798871040344 6.434964656829834 98 109 111
0.39213669300079346 0.08866089582443237 6.300700664520264 160 177 171
0.2988990545272827 -0.22777220606803894 6.316077709197998 103 111 96
-0.35303929448127747 0.17953702807426453 6.434996604919434 129 153 153
0.3312598168849945 -0.059588007628917694 6.359740257263184 172 189 179
0.17454272508621216 -0.2952738404273987 6.337296485900879 153 154 148
0.41675156354904175 -0.12149021774530411 6.25372314453125 183 188 165
-0.09459033608436584 -0.609074056148529 5.810819149017334 105 81 79
0.20093072950839996 -0.0495794303715229 6.445371627807617 69 76 68
-0.21184901893138885 -0.6439786553382874 6.474367141723633 106 108 86
0.39245760440826416 -0.20081691443920135 6.242387771606445 208 221 201
-0.1444714367389679 0.3153306841850281 6.3549652099609375 79 90 82
0.5244731307029724 0.14807794988155365 6.069303512573242 160 175 170
0.41579627990722656 -0.05829412117600441 6.280465602874756 53 63 64
0.04240107536315918 0.2696835398674011 6.426604747772217 93 127 154
0.20961889624595642 0.31404393911361694 6.344899654388428 77 105 109
0.40402549505233765 -0.1505330204963684 6.263205051422119 204 212 197
0.5402327179908752 -0.033265724778175354 6.035763263702393 177 186 165
0.18547216057777405 0.1408400982618332 6.426626682281494 140 153 161
0.0010575827909633517 -0.07202993333339691 6.454548358917236 95 69 72
0.31599709391593933 -0.3643973171710968 6.125477313995361 125 130 123
0.2800157070159912 0.1863780915737152 6.374631881713867 42 53 59
0.09562202543020248 -0.3192705512046814 6.340489387512207 116 122 112
0.014110376127064228 -0.5100961923599243 5.84758996963501 74 80 76
0.3061000108718872 0.05727215111255646 6.3822431564331055 57 67 59
0.4283659756183624 -0.30733537673950195 6.008499622344971 214 212 199
0.525678813457489 0.0224447138607502 6.064789295196533 164 171 163
0.19259965419769287 -0.10727386921644211 6.436892032623291 177 184 168
0.4866766035556793 -0.21290262043476105 6.079287528991699 192 199 165
0.06710576266050339 0.7312555313110352 5.936615943908691 56 62 52
0.06394202262163162 0.9673767685890198 6.099390029907227 110 107 90
0.18795806169509888 0.16412031650543213 6.425293445587158 139 160 177
0.41079702973365784 -0.1779719740152359 6.239038467407227 215 223 202
0.1528022736310959 0.046968840062618256 6.464498043060303 129 132 123
0.39021798968315125 -0.05005478858947754 6.31157112121582 188 197 180
0.32575005292892456 0.2950085401535034 6.265532970428467 125 143 145
0.26806798577308655 0.17707975208759308 6.372323036193848 146 164 166
0.3835665285587311 0.06684039533138275 6.309884548187256 148 165 157
0.5061701536178589 -0.10623181611299515 6.112481594085693 181 183 169
0.47806039452552795 -0.2317710667848587 5.958137035369873 197 177 153
0.3360365629196167 -0.16239793598651886 6.330499172210693 207 216 195
0.32811635732650757 -0.1598227620124817 6.3376617431640625 174 185 169
-0.15116113424301147 1.0125857591629028 6.352499008178711 61 55 55
-0.3961188793182373 -0.6313953995704651 6.463099479675293 198 201 192
0.4349079430103302 0.8555718660354614 5.916793346405029 33 69 43
0.5029221177101135 0.17743854224681854 6.080455303192139 63 82 78
0.4244130849838257 0.2106000930070877 6.229960918426514 139 171 158
0.4169006943702698 -0.2295914590358734 6.145496845245361 205 218 201
0.5015271306037903 0.03158345818519592 6.145101547241211 130 144 118
0.18165795505046844 -0.27616336941719055 6.353461265563965 148 154 140
-0.24010032415390015 -0.20854440331459045 6.5066070556640625 97 82 79
-0.2117440551519394 -0.6384090185165405 6.491334915161133 107 105 90
0.49872201681137085 -0.16103234887123108 6.081588268280029 184 192 169
0.26393815875053406 -0.316057026386261 6.266936779022217 245 251 237
0.08051146566867828 0.04846305027604103 6.482898235321045 128 133 113
0.44361716508865356 -0.16902291774749756 6.200323581695557 211 223 203
0.1780695617198944 -0.17132975161075592 6.416589260101318 172 182 158
0.07526462525129318 0.1252385675907135 6.464803218841553 143 166 172
0.20901621878147125 -0.13962215185165405 6.414902687072754 172 175 156
0.5050091743469238 -0.15326043963432312 6.0389790534973145 165 173 160
0.4335070848464966 0.02291012369096279 6.271085262298584 134 144 119
0.0405254028737545 0.9288055896759033 5.96032190322876 29 38 33
0.07330193370580673 -0.21939031779766083 6.410188674926758 45 45 43
0.4239361584186554 -0.1514819711446762 6.2182817459106445 180 187 154
0.2911720871925354 -0.22046874463558197 6.328073024749756 204 217 207
0.11662676930427551 1.181206226348877 6.49442195892334 104 108 91
0.3648092746734619 -0.17968957126140594 6.2998151779174805 176 181 158
0.06873687356710434 -0.21644043922424316 6.423172473907471 159 146 137
0.2529487609863281 0.2073051929473877 6.371065616607666 105 125 124
0.41964495182037354 0.012197816744446754 6.279374122619629 186 190 176
0.5064101219177246 0.1310814470052719 6.129675388336182 153 168 147
0.32279637455940247 1.0753244161605835 6.357494831085205 37 35 38
0.29507219791412354 -0.3613381087779999 6.178670406341553 235 247 235
0.29649969935417175 -0.2729906141757965 6.283472537994385 227 235 214
0.4356417953968048 0.821284294128418 5.841459274291992 60 82 69
0.02056598849594593 0.16006973385810852 6.467462539672852 49 58 67
0.05693800002336502 -0.2560168504714966 6.392921447753906 116 106 97
0.29507219791412354 -0.3613381087779999 6.178670406341553 235 247 235
0.07100283354520798 -0.10105760395526886 6.486231327056885 45 35 43
-0.16090936958789825 0.8614248633384705 6.033125400543213 56 42 41
-0.21170887351036072 0.03710472583770752 6.470462322235107 103 84 86
0.42618104815483093 -0.04446282237768173 6.282468318939209 193 197 174
0.47649848461151123 0.10526192933320999 6.186044216156006 63 74 68
0.5244731307029724 0.14807794988155365 6.069303512573242 160 175 170
-0.12421732395887375 -0.6074333786964417 5.865935325622559 132 113 107
0.18446668982505798 0.24830655753612518 6.402774810791016 42 45 50
0.17022332549095154 -0.08885851502418518 6.45482063293457 184 193 166
0.45980796217918396 0.050466857850551605 6.232088565826416 170 183 174
0.38199475407600403 0.3165320158004761 6.199343681335449 85 76 69
0.29775524139404297 -0.09818524867296219 6.370273590087891 201 213 191
-0.09318012744188309 0.33423179388046265 6.364251136779785 70 98 101
0.014388171955943108 0.29654356837272644 6.419376850128174 99 119 118
-0.2140544205904007 -0.5918929576873779 6.361905574798584 79 81 76
0.29848185181617737 0.32090190052986145 6.277416706085205 110 126 123
-0.05409511551260948 -0.21795998513698578 6.416211128234863 127 99 87
0.11860886216163635 -0.16480900347232819 6.443620681762695 163 163 135
0.05657089501619339 0.21947678923606873 6.4395856857299805 35 43 62
-0.16935966908931732 -0.3069004714488983 6.3222784996032715 70 52 52
0.5507336258888245 0.6811821460723877 5.408017635345459 182 180 183
-0.21247757971286774 -0.56805819272995 6.420881271362305 113 90 84
0.39756426215171814 0.0009228893322870135 6.31410551071167 185 193 169
0.47440066933631897 -0.013662758283317089 6.186575889587402 139 144 124
-0.007507015950977802 0.36098402738571167 6.361926078796387 92 118 143
0.2340536117553711 -0.4041406214237213 6.143889427185059 227 238 224
0.1364707350730896 1.15496027469635 6.513354778289795 145 138 110
0.17291055619716644 1.1304535865783691 6.5005412101745605 121 109 93
0.058345481753349304 0.2738751471042633 6.405526638031006 105 135 159
0.37782418727874756 -0.13876177370548248 6.283104419708252 179 184 164
0.2592437267303467 0.9991762638092041 6.218578338623047 74 75 69
0.483360230922699 -0.15144416689872742 6.119864463806152 206 216 191
-0.20784932374954224 0.47273850440979004 6.448570251464844 78 61 67
0.12247985601425171 1.153933048248291 6.489631652832031 54 56 53
-0.04725494608283043 0.20178601145744324 6.446211338043213 64 77 85
0.34437766671180725 -0.1485273838043213 6.3107075691223145 207 217 193
0.23547106981277466 -0.3338638246059418 6.257876873016357 229 246 230
0.2221943438053131 1.156549096107483 6.523261070251465 161 160 140
0.4769037067890167 -0.03599175438284874 6.143304347991943 98 99 101
0.2459719032049179 0.24167460203170776 6.375887870788574 102 121 127
0.23202991485595703 0.15835006535053253 6.412078857421875 96 105 110
-0.26215606927871704 -0.11802198737859726 6.4760918617248535 98 84 84
0.2043142467737198 -0.10454913228750229 6.413508415222168 157 167 156
0.24230726063251495 1.1468828916549683 6.513274192810059 172 176 161
0.4010024964809418 0.25967729091644287 6.216560363769531 128 154 153
-0.02880561724305153 0.12826447188854218 6.473201751708984 57 59 72
-0.14868171513080597 -0.24780665338039398 6.342513561248779 162 128 103
-0.21358975768089294 0.49260568618774414 6.446954727172852 67 58 59
0.4932994246482849 -0.14629578590393066 6.101832866668701 188 197 176
0.3061595559120178 0.13664887845516205 6.35043478012085 119 141 139
0.15677198767662048 1.1869784593582153 6.529408931732178 120 127 94
-0.2592742145061493 -0.249027818441391 6.494903087615967 103 84 80
0.44451311230659485 -0.26178261637687683 6.100276947021484 93 95 92
0.07330193370580673 -0.21939031779766083 6.410188674926758 45 45 43
0.4925592839717865 0.22083210945129395 6.061086654663086 137 155 157
0.16299612820148468 0.04842716455459595 6.445928573608398 140 138 125
0.04105895012617111 0.031051626428961754 6.487771034240723 131 121 111
0.23202991485595703 0.15835006535053253 6.412078857421875 96 105 110
-0.20923452079296112 -0.1427658498287201 6.4143290519714355 50 38 42
0.522753119468689 0.03676827996969223 6.102900981903076 153 151 138
-0.15116113424301147 1.0125857591629028 6.352499008178711 61 55 55
0.3692415654659271 -0.09873858094215393 6.303058624267578 194 208 191
0.18795806169509888 0.16412031650543213 6.425293445587158 139 160 177
0.5089322924613953 -0.12468687444925308 6.062389850616455 179 182 173
0.49339234828948975 -0.033433910459280014 6.120835781097412 128 136 123
-0.012468305416405201 -0.08757897466421127 6.475545883178711 118 93 88
0.5002760291099548 -0.03241933137178421 6.109808921813965 139 132 114
0.21568048000335693 -0.08281548321247101 6.4327216148376465 167 173 161
0.4668614864349365 0.02676975727081299 6.213557720184326 165 178 171
0.18791206181049347 -0.36737188696861267 6.266926288604736 213 223 199
0.09321325272321701 0.7256702780723572 5.8716349601745605 161 149 133
0.5324757099151611 -0.06480547785758972 6.007488250732422 175 183 168
0.37075626850128174 0.21784304082393646 6.286301612854004 149 166 173
0.42618104815483093 -0.04446282237768173 6.282468318939209 193 197 174
0.47307321429252625 0.2311922013759613 6.121496677398682 130 135 131
0.48783016204833984 -0.12788794934749603 6.125872611999512 160 163 142
0.2890850305557251 -0.3274122178554535 6.2217698097229 231 244 226
-0.24329961836338043 -0.1860109567642212 6.5063676834106445 89 72 82
0.15335038304328918 0.2799113094806671 6.392453670501709 31 36 40
0.44077742099761963 0.02827182412147522 6.257969379425049 150 161 144
0.4980067312717438 -0.09275848418474197 6.135895252227783 169 151 127
0.3904520869255066 -0.007491325493901968 6.3152360916137695 148 152 138
0.2988990545272827 -0.22777220606803894 6.316077709197998 103 111 96
0.0028281118720769882 0.3899742066860199 6.3502349853515625 79 104 124
-0.1888701468706131 -0.5915939211845398 6.236549377441406 96 83 74
0.21703055500984192 -0.35145339369773865 6.255734443664551 230 242 228
-0.16711004078388214 0.9206255674362183 6.413013458251953 109 107 82
0.1265595555305481 1.18730890750885 6.521971702575684 116 114 91
0.541211724281311 0.011079262010753155 5.9728007316589355 105 109 108
0.07319873571395874 0.9789860248565674 6.1004252433776855 59 68 63
0.4738166034221649 -0.16139018535614014 6.17025899887085 203 208 188
0.05683443695306778 0.16477808356285095 6.469509601593018 109 133 143
-0.23554758727550507 -0.4476412832736969 6.4969048500061035 54 52 63
-0.19066548347473145 -0.5922195911407471 6.350917339324951 50 48 49
-0.2109813690185547 -0.14597703516483307 6.44383430480957 111 93 93
-0.1313123106956482 0.15074573457241058 6.438941478729248 65 55 54
0.3226454257965088 0.10568145662546158 6.375707149505615 139 151 147
0.4851313531398773 -0.10500916838645935 6.154868125915527 143 133 123
0.0428590402007103 0.980433464050293 6.095383644104004 51 53 52
0.06435216963291168 0.711178183555603 5.897000789642334 23 28 24
0.4335481822490692 -0.3028406500816345 5.9867448806762695 213 198 169
0.16295595467090607 -0.3319963812828064 6.307389259338379 153 159 145
0.47953668236732483 0.1569550484418869 6.092709541320801 144 160 150
0.1513444036245346 -0.4484105110168457 6.105517387390137 228 212 186
0.0028238659724593163 -0.1391187608242035 6.463778495788574 113 94 80
0.4221038520336151 0.9052209854125977 6.144465923309326 198 199 159
0.36992743611335754 -0.3179059624671936 6.159265041351318 207 219 199
0.14911870658397675 1.145806074142456 6.496788024902344 110 104 92
0.3196945786476135 0.12509043514728546 6.361425876617432 157 173 173
0.15884292125701904 0.05388163402676582 6.456678867340088 40 44 47
0.4376247227191925 0.23890192806720734 6.190418720245361 137 139 125
0.1319623440504074 -0.3853502571582794 6.248327732086182 235 241 215
-0.18625105917453766 0.005767468363046646 6.322482109069824 118 103 80
0.1734016239643097 -0.3264773190021515 6.305331230163574 228 237 218
0.2688974142074585 0.2666054368019104 6.339111328125 128 155 166
0.31354647874832153 -0.33802464604377747 6.158998489379883 202 210 186
-0.4029739797115326 -0.5849232077598572 6.512908935546875 116 119 100
-0.3333425521850586 0.4112255275249481 6.416924953460693 120 138 148
0.17751745879650116 0.173658087849617 6.436508655548096 31 45 54
-0.22704651951789856 -0.03759757801890373 6.459464073181152 105 84 81
0.4112435281276703 0.07121696323156357 6.29082727432251 166 182 171
0.5030320882797241 0.14458908140659332 6.089498996734619 150 171 162
-0.3027127981185913 -0.31081366539001465 6.479705333709717 129 143 144
0.08186378329992294 0.6511216759681702 6.178281307220459 116 116 106
-0.09103219956159592 -0.20316162705421448 6.399321556091309 59 38 35
0.12472735345363617 -0.03332524374127388 6.469244480133057 132 130 118
-0.1701756864786148 1.0593960285186768 6.446413993835449 113 120 89
0.444475382566452 0.13280849158763885 6.222938060760498 133 149 149
0.45258960127830505 -0.16558051109313965 6.1739373207092285 215 223 208
-0.21660979092121124 -0.595055878162384 6.380070686340332 119 123 90
0.2125932276248932 1.1519336700439453 6.522396087646484 65 68 61
0.14320234954357147 -0.001043711556121707 6.468298435211182 105 115 107
-0.19844746589660645 -0.4800240099430084 6.329874038696289 106 87 89
0.02428087592124939 -0.12590014934539795 6.461644172668457 151 132 118
-0.12365120649337769 -0.30436497926712036 6.313523769378662 151 128 122
0.4793076515197754 0.17072434723377228 6.143168926239014 124 128 113
-0.17325212061405182 -0.3562624454498291 6.223639965057373 75 61 48
-0.29783591628074646 1.0450142621994019 6.4075608253479 117 146 160
0.2606143653392792 0.8344161510467529 5.822082996368408 74 71 56
0.49154385924339294 -0.13998255133628845 6.128584384918213 90 86 83
0.4376247227191925 0.23890192806720734 6.190418720245361 137 139 125
0.17127522826194763 1.2048468589782715 6.5328593254089355 142 143 112
0.4543478786945343 0.8600001335144043 5.924319267272949 78 108 100
0.3061595559120178 0.13664887845516205 6.35043478012085 119 141 139
0.06958150118589401 -0.6030275821685791 5.857105731964111 70 98 101
0.24637438356876373 0.9830092191696167 6.223757743835449 209 217 219
-0.04410365968942642 -0.28065162897109985 6.373300075531006 182 164 152
-0.09651456773281097 -0.6242652535438538 5.753457069396973 120 118 121
0.04308898374438286 0.29624849557876587 6.4133124351501465 105 123 125
0.24663642048835754 0.3055307865142822 6.330084323883057 103 119 106
0.43697232007980347 0.875093400478363 6.059406757354736 177 167 132
0.0643220841884613 -0.1503933072090149 6.450477123260498 90 80 71
0.26808133721351624 0.19679023325443268 6.377813816070557 140 163 157
0.10935700684785843 -0.29054754972457886 6.362860679626465 143 136 126
0.09214518219232559 -0.09084675461053848 6.465330123901367 152 136 120
0.48656943440437317 0.8020952343940735 5.5936479568481445 95 132 138
-0.18892355263233185 -0.6454656720161438 6.268884658813477 211 195 179
-0.3742651343345642 -0.16655205190181732 6.446858882904053 136 150 150
0.22493845224380493 1.034274935722351 6.272783279418945 15 24 23
0.46701762080192566 0.2556957006454468 6.115403175354004 137 123 110
-0.2164085954427719 0.5250245928764343 6.455468654632568 115 101 98
0.19220900535583496 1.1848011016845703 6.542040824890137 128 126 101
0.522753119468689 0.03676827996969223 6.102900981903076 153 151 138
0.44366616010665894 0.194263756275177 6.184325695037842 61 72 68
-0.3452421724796295 0.20236550271511078 6.4287495613098145 115 140 137
-0.25459370017051697 0.824863612651825 6.424633502960205 129 131 144
0.47005608677864075 0.8963239192962646 6.034652233123779 64 83 77
0.19185294210910797 1.1558057069778442 6.525622844696045 200 200 166
0.3357703685760498 0.9131433367729187 6.227057933807373 194 199 179
0.15919920802116394 -0.1134791299700737 6.415913105010986 128 139 123
0.33950692415237427 0.3144800364971161 6.240288257598877 49 52 57
0.019146965816617012 0.39038699865341187 6.343567848205566 85 91 103
0.44145485758781433 0.2360079288482666 6.162220001220703 62 73 69
0.1319623440504074 -0.3853502571582794 6.248327732086182 235 241 215
0.20125234127044678 1.189305067062378 6.535500526428223 149 155 121
0.24539129436016083 -0.26479434967041016 6.348005771636963 208 222 205
0.04310779646039009 0.0675857812166214 6.482882976531982 101 85 85
0.45980796217918396 0.050466857850551605 6.232088565826416 170 183 174
-0.19684775173664093 -0.21092042326927185 6.387534141540527 54 44 45
0.5424435138702393 0.03200443834066391 6.0482096672058105 164 171 163
0.4425843060016632 0.07213131338357925 6.287793159484863 163 186 168
0.235515296459198 -0.004201976582407951 6.44389533996582 123 119 92
-0.0381617546081543 0.05950909107923508 6.481322765350342 112 111 91
0.1637122929096222 0.011493735946714878 6.459007740020752 135 125 113
0.03486219793558121 -0.15135492384433746 6.449499607086182 107 84 70
0.2769475281238556 -0.16025367379188538 6.3637518882751465 171 179 156
0.13445542752742767 -0.11481159180402756 6.450931072235107 157 140 120
0.07132184505462646 0.7454872727394104 6.02635383605957 15 27 23
0.11199822276830673 0.021284928545355797 6.4597487449646 43 57 58
0.5372416973114014 -0.14372313022613525 6.02815580368042 170 149 130
0.2131144106388092 -0.021786019206047058 6.439280986785889 92 84 73
0.01529297512024641 0.14009690284729004 6.468204975128174 68 72 84
-0.03113139234483242 0.04781675338745117 6.4731221199035645 34 33 38
0.20181861519813538 0.05158277601003647 6.443757057189941 146 133 117
0.22251471877098083 0.3238840103149414 6.335437297821045 91 107 107
-0.017661919817328453 1.158514142036438 6.483404159545898 126 99 104
0.5355401039123535 -0.0062453714199364185 6.053457260131836 54 63 62
-0.13407966494560242 0.2997417151927948 6.383213043212891 26 34 36
0.3707635700702667 -0.13865505158901215 6.306971073150635 199 214 195
0.18051180243492126 0.1897415816783905 6.418455600738525 135 156 147
0.4015769064426422 0.9611589312553406 6.263028621673584 181 178 147
-0.05168841779232025 -0.10230617225170135 6.455862045288086 121 105 89
0.05328530818223953 -0.18200963735580444 6.442050933837891 164 149 128
-0.23587585985660553 -0.20003342628479004 6.490487575531006 133 113 114
0.5434253811836243 0.7070959210395813 5.535233020782471 78 106 107
0.5093285441398621 0.11944299191236496 6.074658393859863 165 175 174
0.2942577302455902 -0.38422322273254395 6.117803573608398 250 255 254
0.3739960193634033 1.0705547332763672 6.371266841888428 184 192 171
0.4806872308254242 0.9168621301651001 6.0361528396606445 82 108 97
-0.23573489487171173 -0.3795624375343323 6.506319999694824 139 123 124
0.18848513066768646 -0.4071808457374573 6.196384429931641 226 242 229
0.31160733103752136 -0.08318141102790833 6.362534999847412 75 76 71
0.16690514981746674 0.14676235616207123 6.481717109680176 114 131 149
0.045279182493686676 -0.31743350625038147 6.337734222412109 84 85 77
0.5353187322616577 -0.053801778703927994 6.039093017578125 104 112 99
0.17291055619716644 1.1304535865783691 6.5005412101745605 121 109 93
0.46093398332595825 0.22392624616622925 6.143035888671875 123 129 119
0.3328063488006592 0.8202356100082397 5.833809852600098 33 30 25
0.2733387351036072 0.06581039726734161 6.413114547729492 154 176 173
0.07373781502246857 -0.5847755074501038 5.857242107391357 93 108 105
0.05931422859430313 0.17565850913524628 6.457503318786621 29 39 41
-0.020945467054843903 -0.26922106742858887 6.392723083496094 161 124 106
0.3030408024787903 -0.2826234698295593 6.2688164710998535 196 208 184
-0.2884964048862457 -0.6307582855224609 6.51400899887085 215 222 204
0.1278415471315384 0.3375721573829651 6.374102592468262 73 70 89
0.15593303740024567 1.173797845840454 6.5186028480529785 112 116 93
-0.2696293294429779 0.8828648328781128 6.432133674621582 134 165 170
0.2881127893924713 -0.3984183967113495 6.096829891204834 162 172 163
0.42273783683776855 -0.012706860899925232 6.264595985412598 147 155 140
0.4132870137691498 -0.3317626416683197 5.944620132446289 109 99 98
-0.23836593329906464 -0.40838104486465454 6.337674140930176 132 114 112
-0.1503061205148697 -0.4209054112434387 6.125108242034912 70 58 60
0.4463001489639282 0.010741283185780048 6.254298686981201 143 145 132
-0.1989443600177765 0.5360881090164185 6.386706352233887 58 46 48
0.23817703127861023 -0.10442376881837845 6.410634517669678 179 191 181
-0.09406328946352005 0.17317195236682892 6.437565803527832 99 118 125
-0.19705823063850403 -0.6630120873451233 6.417212963104248 195 199 174
0.3593693673610687 0.2255518138408661 6.2946977615356445 52 65 74
0.28980475664138794 -0.34465739130973816 6.195113182067871 209 216 198
0.18487398326396942 0.21820542216300964 6.412885665893555 107 129 143
0.054640039801597595 -0.33589866757392883 6.315115451812744 201 206 186
0.30809104442596436 0.8045507073402405 5.753807067871094 91 74 66
0.31248119473457336 -0.3218723237514496 6.2012152671813965 205 210 180
0.46375077962875366 0.0662410780787468 6.209644317626953 117 127 116
0.477205753326416 0.013850761577486992 6.184729099273682 118 129 112
0.44414788484573364 0.8693128228187561 6.041365146636963 170 163 135
-0.043417979031801224 -0.3091890811920166 6.345825672149658 92 64 53
-0.14648249745368958 1.0421466827392578 6.33642578125 113 108 79
0.19345848262310028 -0.03985568508505821 6.448039531707764 183 179 154
0.2883831858634949 -0.2970285415649414 6.268209457397461 222 234 214
-0.3071288764476776 0.7715038061141968 6.416767597198486 110 138 149
0.057628124952316284 0.28209587931632996 6.422445297241211 32 49 59
0.4708094298839569 -0.09696484357118607 6.195496559143066 172 166 142
0.45677587389945984 -0.0894489586353302 6.2172698974609375 193 209 196
0.4239361584186554 -0.1514819711446762 6.2182817459106445 180 187 154
-0.2363942712545395 -0.0970156192779541 6.481019496917725 124 101 93
0.4971596300601959 -0.0762816071510315 6.137577056884766 168 157 135
-0.2019340693950653 0.7769194841384888 6.426528453826904 82 63 67
0.551234245300293 0.02221447043120861 5.935083866119385 81 93 93
0.05008753389120102 -0.004470646381378174 6.479723930358887 93 72 69
0.5667251348495483 0.7556478381156921 5.614573955535889 86 127 121
-0.20646518468856812 -0.5929852724075317 6.43674898147583 127 122 93
0.3660809099674225 0.2957191467285156 6.18229866027832 49 55 51
-0.13647116720676422 0.9134923815727234 6.066091537475586 65 56 47
0.23126018047332764 0.40042170882225037 6.262754440307617 33 39 39
-0.109861359000206 0.9521750211715698 6.093077659606934 77 57 58
0.5673965215682983 0.6970670223236084 5.4773736000061035 178 184 174
0.1304694563150406 1.1721123456954956 6.457608699798584 46 50 51
-0.06772790104150772 0.19734764099121094 6.440528869628906 125 135 134
0.17454272508621216 -0.2952738404273987 6.337296485900879 153 154 148
0.18404848873615265 0.26052790880203247 6.389577865600586 42 49 57
0.5252754092216492 0.21309708058834076 5.919036388397217 148 161 151
0.48761793971061707 -0.24155163764953613 5.996222496032715 102 91 87
0.13180077075958252 0.10534484684467316 6.468775272369385 149 170 173
-0.1859305202960968 -0.6603647470474243 6.30598783493042 206 206 182
-0.2024880200624466 -0.5390799045562744 6.332066059112549 85 75 66
0.14549723267555237 0.23603574931621552 6.420438289642334 56 55 73
0.10879289358854294 1.144326090812683 6.49348783493042 180 166 153
0.026850538328289986 0.34314534068107605 6.375755310058594 90 108 132
0.0037678717635571957 0.3981871008872986 6.364356994628906 33 39 55
0.14911870658397675 1.145806074142456 6.496788024902344 110 104 92
0.32036545872688293 0.33463767170906067 6.252774238586426 40 51 45
0.025400755926966667 -0.30430272221565247 6.3669610023498535 180 160 136
-0.05003619194030762 0.2532441020011902 6.421809196472168 59 77 87
0.4885227084159851 -0.2197631597518921 5.993201732635498 124 117 99
-0.3670477867126465 0.901050865650177 6.403847694396973 119 98 97
0.511126697063446 -0.10798031836748123 6.076904296875 182 188 174
-0.2059440016746521 0.7782430648803711 6.4471845626831055 161 173 195
0.22150668501853943 -0.1732107698917389 6.390130043029785 168 178 151
0.5059217810630798 0.8907253742218018 5.958796501159668 65 104 99
-0.19871018826961517 0.5107750296592712 6.443169116973877 93 74 68
0.19464918971061707 0.37732455134391785 6.309270858764648 52 62 61
0.4735746681690216 -0.09167652577161789 6.184436798095703 130 118 104
-0.20033662021160126 -0.5163332223892212 6.364816665649414 122 113 108
-0.22536030411720276 -0.08094064146280289 6.469441890716553 82 57 52
0.3036991059780121 -0.20831693708896637 6.329710483551025 82 91 88
0.011818201281130314 0.4013172686100006 6.345365524291992 23 31 42
-0.055158086121082306 0.11731746792793274 6.464125156402588 59 56 63
0.4822130501270294 0.7280552387237549 5.546396732330322 74 99 96
0.21254323422908783 1.1435015201568604 6.5079755783081055 46 50 53
-0.1607643961906433 1.1179122924804688 6.403378486633301 154 138 112
0.2065950632095337 -0.033469293266534805 6.435597896575928 162 152 116
-0.23884353041648865 -0.5699083209037781 6.519914150238037 97 93 68
0.4793076515197754 0.17072434723377228 6.143168926239014 124 128 113
0.0461912527680397 0.3364386260509491 6.384743690490723 25 33 54
0.5335028767585754 0.053534794598817825 6.088140964508057 165 178 169
0.27180495858192444 -0.31731754541397095 6.258168697357178 128 130 125
-0.20095455646514893 0.8689271211624146 6.441341876983643 87 71 56
0.18903611600399017 -0.049062516540288925 6.444102764129639 63 65 60
0.1583455502986908 0.32391148805618286 6.359102725982666 40 48 61
0.15385068953037262 0.2506027817726135 6.4129767417907715 104 103 108
-0.2812577188014984 1.1008785963058472 6.416501998901367 121 151 161
0.2463158369064331 -0.12477508187294006 6.410148620605469 164 173 154
-0.2910970449447632 0.6840987205505371 6.427368640899658 141 165 167
-0.2131097912788391 -0.4143437147140503 6.387208461761475 136 121 116
0.26006683707237244 1.1486585140228271 6.519057273864746 78 65 83
0.4738538861274719 -0.16403159499168396 6.12723970413208 82 84 81
0.14038097858428955 -0.26361989974975586 6.369232654571533 211 221 210
0.5334073901176453 -0.12924624979496002 5.938185214996338 174 156 134
0.3359384834766388 -0.18285372853279114 6.295968532562256 167 183 147
-0.10566733777523041 -0.557188093662262 5.869887351989746 91 66 61
0.3119216859340668 0.19783420860767365 6.279675483703613 145 171 170
0.043624140322208405 0.355842262506485 6.366837501525879 35 39 48
0.24423186480998993 0.14882159233093262 6.400327682495117 85 105 112
0.5141115188598633 0.8130478858947754 5.787857532501221 93 128 130
0.32695847749710083 -0.14939437806606293 6.328734397888184 173 185 161
0.32450422644615173 -0.35000303387641907 6.152665138244629 234 237 226
0.11199822276830673 0.021284928545355797 6.4597487449646 43 57 58
0.31547003984451294 0.7450984120368958 5.746644973754883 138 118 94
0.1866043508052826 -0.4160628914833069 6.166670322418213 213 227 204
0.3227725327014923 0.3299899995326996 6.2263054847717285 90 87 78
0.4485507607460022 -0.2899009585380554 5.961740016937256 168 151 133
0.433756947517395 0.003322545439004898 6.263993263244629 131 139 118
-0.008357606828212738 -0.5122740268707275 5.874438762664795 60 63 54
-0.22581326961517334 -0.4704156219959259 6.504794120788574 173 168 130
-0.056209784001111984 -0.08965799957513809 6.450022220611572 47 42 39
0.4843664765357971 0.11961924284696579 6.184771537780762 129 143 128
0.1418176293373108 -0.3930913805961609 6.240171432495117 157 160 149
-0.14771082997322083 0.9804769158363342 6.216791152954102 69 54 49
-0.0006755616050213575 -0.05483318120241165 6.478145599365234 156 130 117
0.4774107038974762 0.3072958290576935 5.980964183807373 74 82 69
0.23186974227428436 0.13313156366348267 6.412274360656738 104 118 118
-0.19631695747375488 -0.5424742698669434 6.3157429695129395 70 50 51
-0.2232407182455063 -0.3852832019329071 6.440813064575195 114 103 109
-0.04750363901257515 0.5130319595336914 6.2076849937438965 46 51 55
0.3952084481716156 1.0172812938690186 6.280123710632324 66 112 110
0.055829595774412155 0.2604948580265045 6.42678689956665 23 48 79
0.41185176372528076 1.0572624206542969 6.204497814178467 23 33 25
0.1034260168671608 0.6316914558410645 6.017605781555176 16 21 15
-0.19865329563617706 -0.47328701615333557 6.2627716064453125 135 127 125
0.5768322944641113 0.7163378596305847 5.44863748550415 141 138 119
-0.028447842225432396 0.3048182725906372 6.4012370109558105 80 116 114
0.15843087434768677 0.26958414912223816 6.40552282333374 26 28 43
0.29403626918792725 0.4230627715587616 6.180727005004883 64 66 55
-0.10120383650064468 0.048342105001211166 6.448546886444092 127 119 108
0.09639119356870651 -0.3514798879623413 6.297949314117432 216 221 201
0.07740073651075363 -0.6002888083457947 5.8427252769470215 112 137 134
0.19464918971061707 0.37732455134391785 6.309270858764648 52 62 61
0.24401122331619263 -0.34362220764160156 6.249952793121338 218 231 221
0.23442700505256653 -0.2831421196460724 6.320140361785889 213 221 208
0.26203489303588867 0.8521626591682434 5.852035999298096 72 62 53
-0.23356874287128448 -0.21919448673725128 6.497631072998047 134 114 105
0.40077218413352966 0.07803933322429657 6.293673515319824 46 59 67
0.5535063147544861 -0.004405281040817499 5.948670864105225 97 99 96
0.15202942490577698 1.1300976276397705 6.4514241218566895 132 87 94
-0.24360521137714386 -0.4531802535057068 6.519248008728027 74 112 149
0.5583693981170654 0.034828461706638336 5.939795017242432 166 174 161
-0.00983765535056591 1.1308740377426147 6.398831367492676 67 58 63
-0.16039833426475525 0.906878650188446 6.207765579223633 65 49 49
-0.20527960360050201 -0.5675758719444275 6.314624309539795 84 69 72
-0.2254791408777237 0.883549690246582 6.44657039642334 175 186 172
0.1637122929096222 0.011493735946714878 6.459007740020752 135 125 113
0.40520477294921875 0.8202545046806335 5.89909029006958 148 153 133
-0.2067742794752121 -0.22287306189537048 6.381814956665039 114 88 89
0.42273783683776855 -0.012706860899925232 6.264595985412598 147 155 140
0.4467949867248535 0.2629859447479248 6.1207780838012695 102 77 70
0.06591357290744781 0.7768733501434326 5.80603551864624 48 51 44
-0.19484911859035492 0.12834523618221283 6.414799213409424 76 68 79
0.30383118987083435 -0.25750410556793213 6.281093120574951 193 201 162
0.4996708929538727 -0.14863720536231995 6.057617664337158 114 119 99
0.5529956817626953 0.06379297375679016 5.899852752685547 112 110 97
0.24424822628498077 0.28052324056625366 6.353893756866455 97 112 115
0.21645869314670563 0.10077358037233353 6.435558319091797 98 111 102
0.47514408826828003 0.8916758298873901 6.077975749969482 90 123 114
0.08895669132471085 -0.14200079441070557 6.4654340744018555 167 152 145
0.056706078350543976 -0.2842053771018982 6.372524261474609 116 103 86
-0.18476338684558868 -0.37831181287765503 6.2284626960754395 116 97 101
-0.0907728299498558 -0.3004091680049896 6.340504169464111 84 63 46
0.481635183095932 0.034808844327926636 6.202853679656982 133 139 129
0.5026130080223083 -0.08701183646917343 6.118793964385986 175 168 149
0.5557336807250977 -0.03689491003751755 5.987703323364258 145 160 139
0.44948098063468933 0.7627397775650024 5.634940147399902 70 78 63
0.1961381435394287 0.27163055539131165 6.363007068634033 94 110 125
-0.19822180271148682 -0.03404664620757103 6.4134368896484375 46 40 42
0.1385287046432495 0.019354403018951416 6.464021682739258 106 122 111
0.40577688813209534 -0.005538885481655598 6.314239025115967 142 153 136
-0.2758454382419586 -0.6558063626289368 6.510725975036621 202 207 185
-0.20689503848552704 1.045312523841858 6.454826831817627 68 93 115
0.14507797360420227 0.07024416327476501 6.437780857086182 118 121 110
0.5535063147544861 -0.004405281040817499 5.948670864105225 97 99 96
0.31153538823127747 0.31169208884239197 6.273256778717041 35 51 51
0.07135357707738876 -0.16756288707256317 6.441370010375977 157 131 108
-0.08247574418783188 0.06886882334947586 6.468677043914795 111 102 97
0.07243970781564713 -0.4793745279312134 5.754058361053467 43 46 55
0.25454217195510864 0.8686527013778687 6.104747295379639 41 42 37
0.5379241108894348 -0.1148957759141922 5.86596155166626 179 178 157
0.38021448254585266 -0.21221838891506195 6.240842342376709 176 186 159
-0.12652111053466797 -0.436696320772171 6.0976433753967285 57 55 56
-0.1215367242693901 -0.6075976490974426 5.916876792907715 135 110 106
0.11164895445108414 -0.44275152683258057 6.126241207122803 223 213 186
0.34091219305992126 -0.16150857508182526 6.314523220062256 176 183 165
0.013526414521038532 -0.5743226408958435 5.886474609375 45 48 39
-0.163253515958786 1.1137428283691406 6.433047771453857 114 112 89
0.43896594643592834 0.046704430133104324 6.259163856506348 165 176 160
0.3998178541660309 0.8169699907302856 5.851926326751709 115 124 107
0.06581295281648636 0.2945640981197357 6.411249160766602 91 100 97
0.4814326763153076 0.27188441157341003 5.995616912841797 74 69 75
-0.21402017772197723 -0.24276427924633026 6.385058403015137 119 94 89
0.052675530314445496 1.0258022546768188 6.124443531036377 73 78 74
0.49648237228393555 0.2695457935333252 5.951066970825195 120 131 114
0.26193967461586 0.13794167339801788 6.390921592712402 115 133 133
-0.14015090465545654 -0.4577971398830414 6.129090309143066 121 106 101
0.10910060256719589 0.10846097767353058 6.460099697113037 111 131 138
0.045356299728155136 -0.603753924369812 5.858567237854004 147 152 155
0.5379241108894348 -0.1148957759141922 5.86596155166626 179 178 157
0.011818201281130314 0.4013172686100006 6.345365524291992 23 31 42
-0.18469727039337158 -0.20213744044303894 6.369589328765869 50 40 30
-0.20206159353256226 -0.3888463079929352 6.361989974975586 107 79 76
0.4767274260520935 -0.019862646237015724 6.154529571533203 181 193 173
0.3004567325115204 -0.3387865424156189 6.191682815551758 244 253 234
-0.1989443600177765 0.5360881090164185 6.386706352233887 58 46 48
-0.2281508594751358 -0.3356313109397888 6.476802825927734 136 117 121
0.2253669798374176 -0.17793193459510803 6.363680362701416 173 186 168
0.31754735112190247 0.3247359097003937 6.264885425567627 109 122 115
0.1407170295715332 0.2964929938316345 6.395737648010254 96 98 87
-0.22354885935783386 0.4800945818424225 6.465559959411621 95 84 100
-0.05372849479317665 0.29380303621292114 6.395240783691406 37 44 50
0.0922648012638092 0.6269910931587219 6.134623050689697 34 41 34
-0.20460908114910126 0.7500659227371216 6.42626428604126 85 65 66
-0.2269691377878189 -0.1735190451145172 6.480872631072998 91 68 62
0.49431076645851135 -0.13251687586307526 6.0810980796813965 159 163 146
-0.11735474318265915 0.41901126503944397 6.269413948059082 41 61 70
0.36759763956069946 0.33658918738365173 6.1989288330078125 84 78 82
0.2751592993736267 -0.12408851087093353 6.394110679626465 191 199 178
0.3718187212944031 -0.3437255024909973 6.0579833984375 222 236 219
-0.08904527872800827 -0.21437261998653412 6.405060291290283 162 140 116
-0.18476338684558868 -0.37831181287765503 6.2284626960754395 116 97 101
0.4646871089935303 -0.2682873606681824 5.982313632965088 124 129 122
0.5010688900947571 0.2317020744085312 6.039292335510254 71 78 86
0.031941644847393036 -0.5054888725280762 5.652653217315674 106 107 112
0.12376461178064346 1.1648293733596802 6.509626865386963 46 53 69
0.4161091446876526 0.3513536751270294 6.096103668212891 61 47 47
0.374687135219574 -0.3498852252960205 6.039766788482666 115 119 118
0.39760416746139526 0.3141622245311737 6.228156089782715 66 65 63
0.02284736931324005 -0.24317623674869537 6.4082794189453125 194 165 135
0.19577975571155548 0.10308893769979477 6.431163787841797 142 166 166
-0.14723603427410126 1.1114057302474976 6.395844459533691 119 115 88
0.26303038001060486 0.35235831141471863 6.292815208435059 88 92 101
-0.20838002860546112 -0.48798665404319763 6.468084812164307 83 77 65
-0.008209403604269028 0.466400146484375 6.296703815460205 33 41 43
0.42025965452194214 -0.2412247657775879 6.152902126312256 222 230 217
-0.1186932846903801 0.9346494674682617 6.169894218444824 73 55 45
0.053102027624845505 -0.20946672558784485 6.433637619018555 146 127 112
0.37398695945739746 0.7992034554481506 5.763625621795654 40 39 34
-0.10772613435983658 1.0142710208892822 6.083861827850342 40 35 32
-0.15664716064929962 1.1288926601409912 6.387753009796143 52 52 54
0.5186607241630554 0.04919969290494919 6.120365142822266 143 157 132
-0.10232523828744888 -0.5779857039451599 5.866086483001709 123 99 95
-0.2647058665752411 -0.43289417028427124 6.505157947540283 69 57 71
0.43164098262786865 -0.017451442778110504 6.260751724243164 165 177 167
0.4681803286075592 0.24905364215373993 6.09138298034668 50 52 51
0.46309158205986023 0.32985082268714905 6.00009822845459 66 68 63
-0.055871713906526566 -0.18134160339832306 6.414554119110107 137 111 86
-0.1304914355278015 1.114496111869812 6.269594192504883 125 119 85
-0.024770038202404976 0.25979354977607727 6.393673419952393 89 122 139
0.537787139415741 0.1058826744556427 5.945188045501709 114 134 125
0.29139241576194763 0.08421467244625092 6.424408912658691 122 137 130
0.45237207412719727 0.06496016681194305 6.225045680999756 138 151 144
-0.3601418137550354 0.9053407311439514 6.4206366539001465 78 74 73
0.321863055229187 -0.39945337176322937 6.001036167144775 174 177 166
