ply
format ascii 1.0
element vertex 707
property float x
property float y
property float z
property uchar red
property uchar green
property uchar blue
end_header
0.1740485429763794 0.1378071904182434 6.912790775299072 79 87 89
0.785348653793335 -0.7336034774780273 7.412159442901611 105 102 85
0.3317124545574188 0.04910285398364067 7.044677257537842 115 121 119
0.6275591254234314 -0.12497119605541229 7.388833045959473 45 40 36
0.7334522008895874 0.12670141458511353 7.586861610412598 97 86 92
0.4324711859226227 0.026935648173093796 7.156716346740723 135 122 105
0.46669909358024597 1.3707435131072998 7.431788444519043 135 129 107
0.4614935517311096 -0.11818449944257736 7.154709815979004 178 186 165
0.6561919450759888 1.2767237424850464 7.644973278045654 74 61 81
0.14225834608078003 1.4021505117416382 7.08328104019165 64 50 47
0.25398585200309753 -0.2444571554660797 6.888221263885498 198 204 178
0.6166203022003174 -0.13978464901447296 7.371456146240234 123 105 81
0.8701584935188293 -0.7489942908287048 7.561877250671387 140 144 119
0.575486958026886 -0.15683786571025848 7.304322719573975 167 144 128
0.7714576125144958 0.9048998951911926 7.749122142791748 125 102 96
-0.25219425559043884 1.2077345848083496 6.510199546813965 67 81 110
0.3616373836994171 1.4237490892410278 7.327402591705322 66 66 74
0.3459055721759796 1.460357427597046 7.306424617767334 79 68 102
0.22244875133037567 1.4556816816329956 7.1534037590026855 87 81 91
0.6728206872940063 1.33818519115448 7.649785995483398 174 168 134
0.5211037993431091 0.8047394752502441 7.554078102111816 55 47 45
0.4566258192062378 -0.04238411411643028 7.168666362762451 161 160 140
0.1773715615272522 0.09980778396129608 6.900467395782471 114 128 111
-0.273807555437088 1.7333869934082031 6.485815048217773 53 47 85
0.8487043380737305 -0.5811589360237122 7.526067733764648 91 103 99
0.688873827457428 0.8137260675430298 7.64998197555542 108 95 115
0.7916269302368164 1.1336597204208374 7.779220104217529 57 100 145
0.14462637901306152 1.2021805047988892 7.157526016235352 136 168 155
-0.014512657187879086 1.6540498733520508 6.857938289642334 76 86 111
0.754370927810669 0.02025952748954296 7.600064754486084 146 157 163
-0.2256191074848175 1.1521281003952026 6.805508136749268 153 158 161
0.32351556420326233 1.0057346820831299 7.437188148498535 44 44 44
0.8856446146965027 -0.7192854881286621 7.57459020614624 138 132 100
0.30376625061035156 1.0460213422775269 7.4023261070251465 52 63 59
-1.5892242193222046 -1.0554871559143066 5.205872535705566 165 183 207
-2.0114376544952393 0.3245263695716858 5.315544605255127 164 163 171
0.550258457660675 -0.12499582767486572 7.274406433105469 49 49 49
0.5800217986106873 1.084031105041504 7.609368324279785 62 52 50
0.42660820484161377 0.3297555148601532 7.2702765464782715 97 100 91
0.6269058585166931 0.08061496168375015 7.448790073394775 76 74 75
-0.21998561918735504 1.0813955068588257 6.542466163635254 29 42 74
0.10740063339471817 1.5222079753875732 7.015747547149658 114 114 122
-0.03842796012759209 1.454740047454834 6.851787567138672 61 65 68
-0.20262308418750763 1.0383652448654175 6.584336280822754 234 245 255
-0.765852153301239 1.2320830821990967 6.1965718269348145 167 229 254
-0.17472970485687256 1.3850548267364502 6.659231662750244 21 28 44
0.6172678470611572 0.2649972438812256 7.514074325561523 27 41 52
-1.7699750661849976 -0.757861852645874 5.255895614624023 163 169 167
0.27157801389694214 1.4692354202270508 7.2170820236206055 61 53 76
-0.05989539995789528 1.4524120092391968 6.83092737197876 33 41 44
-0.1791762262582779 0.8609635829925537 6.893683910369873 98 134 134
0.7970231175422668 1.3321168422698975 7.782003402709961 31 48 68
0.46093136072158813 1.354168176651001 7.432094573974609 89 98 93
0.44097018241882324 -0.019634805619716644 7.151089668273926 97 78 74
0.5784249305725098 0.15616077184677124 7.401665687561035 105 121 134
-1.0073469877243042 1.6836774349212646 5.9728474617004395 72 145 224
0.5830209255218506 -0.23937557637691498 7.309182643890381 166 140 115
-0.003478481899946928 1.700279951095581 6.914099216461182 89 109 118
-1.6013842821121216 -0.42708221077919006 6.179636001586914 57 76 215
0.14831213653087616 1.4793144464492798 7.057035446166992 33 37 72
0.5911663770675659 -0.2139778435230255 7.31838321685791 149 126 95
0.3317561149597168 -0.36562150716781616 6.963329315185547 243 250 232
0.236028254032135 1.4598321914672852 7.168214321136475 105 93 107
0.3234522342681885 0.3098664879798889 7.137549877166748 125 152 159
0.7805517315864563 -0.1486213058233261 7.594728469848633 136 161 157
0.6355054974555969 0.21048901975154877 7.515444755554199 29 37 39
0.39659056067466736 0.15810048580169678 7.159357070922852 106 127 120
0.6218986511230469 0.6764097809791565 7.591437339782715 47 46 44
0.6129111051559448 1.372350811958313 7.5917887687683105 17 25 38
0.4136951267719269 -0.28959551453590393 7.064377784729004 217 231 214
0.3170279264450073 0.6688588261604309 7.331058502197266 39 44 38
0.6909615397453308 0.9251231551170349 7.657134532928467 179 188 167
-1.487291693687439 0.1976286917924881 7.958986282348633 129 124 120
0.47073885798454285 1.4799858331680298 7.445995807647705 90 97 90
0.5009222030639648 -0.4019685685634613 7.187474727630615 196 202 188
-0.7584489583969116 -1.833138108253479 6.522973537445068 157 172 203
0.32157933712005615 1.1530767679214478 7.413033485412598 60 65 68
0.7328940629959106 1.348180890083313 7.71790885925293 93 91 128
-0.1805213987827301 1.7362475395202637 6.624261379241943 127 132 128
0.7293145060539246 0.5183196067810059 7.665993690490723 142 163 166
-0.15179871022701263 1.188510537147522 6.95654296875 87 88 82
0.4574914276599884 1.4902230501174927 7.425480365753174 77 84 94
0.31124767661094666 -0.11838733404874802 6.972992420196533 181 186 164
0.0433989092707634 1.245807409286499 7.091495990753174 124 126 105
0.36256200075149536 -0.339844286441803 7.000492095947266 235 238 217
0.6374225616455078 1.3799350261688232 7.616161823272705 22 30 49
-0.8244790434837341 -1.8046060800552368 6.3582282066345215 81 100 140
0.3232051432132721 0.6156201958656311 7.324353218078613 16 20 19
-1.7515910863876343 -0.1768956482410431 5.184506416320801 23 24 26
0.6335834860801697 -0.3701031804084778 7.420917987823486 63 54 47
0.6265413165092468 0.19475167989730835 7.4984211921691895 99 105 91
0.3207981586456299 1.4628440141677856 7.276217937469482 82 69 99
-0.08029725402593613 1.4056143760681152 6.8453369140625 211 222 208
-0.28537699580192566 1.3349528312683105 6.504212379455566 182 202 193
0.22595129907131195 0.3693789541721344 7.068822860717773 52 56 59
0.7795865535736084 0.9603084921836853 7.757543087005615 96 110 110
0.21879364550113678 0.056910060346126556 6.924259185791016 158 162 148
0.3156479299068451 0.015910711139440536 7.016655921936035 170 179 160
0.003908736165612936 1.4783827066421509 6.885193347930908 140 141 145
0.3412652015686035 0.3716660439968109 7.193215847015381 90 105 110
0.21002672612667084 -0.16231419146060944 6.859311103820801 213 218 198
0.5760030150413513 -0.1918594390153885 7.295742511749268 133 105 83
0.7774064540863037 0.019162092357873917 7.635654449462891 118 134 134
0.7976325154304504 -0.21815229952335358 7.6053924560546875 132 147 144
0.5374710559844971 -0.502454936504364 7.329338550567627 99 88 82
0.5917887091636658 -0.010819001123309135 7.375690937042236 138 117 96
-0.013150911778211594 0.8576923608779907 7.098814487457275 91 84 76
0.052259188145399094 1.4982060194015503 6.936145782470703 69 69 69
0.5754140615463257 0.25718382000923157 7.437780380249023 88 110 123
0.006748255342245102 1.273382306098938 7.043344020843506 147 147 137
0.8009918928146362 -0.48608672618865967 7.5261335372924805 129 140 132
-0.30599531531333923 1.771679401397705 6.44788122177124 89 80 107
-0.22151589393615723 1.698872447013855 6.5593695640563965 52 49 70
-0.6691292524337769 -1.9433075189590454 6.2988481521606445 79 91 129
0.31858912110328674 1.5638446807861328 7.288344860076904 70 63 97
0.46599820256233215 -0.04012858495116234 7.181789398193359 149 141 122
0.476140558719635 0.2519025504589081 7.291626930236816 99 132 141
0.31858912110328674 1.5638446807861328 7.288344860076904 70 63 97
-0.2522205114364624 1.0958818197250366 6.4902238845825195 42 46 93
0.8536441922187805 -0.7076021432876587 7.533754348754883 139 155 142
0.7057563066482544 0.14291813969612122 7.559667110443115 47 43 44
0.49425336718559265 1.331823706626892 7.46499490737915 157 150 132
0.7530080676078796 -0.4094315469264984 7.484328746795654 142 122 123
0.6423976421356201 -0.16971656680107117 7.4131317138671875 117 85 72
0.37951257824897766 0.1775948703289032 7.149742126464844 99 119 120
-0.32490795850753784 1.753594994544983 6.407037734985352 66 57 78
0.5346872210502625 0.30121877789497375 7.398261070251465 40 55 58
0.6531621813774109 1.3332829475402832 7.630494594573975 147 151 134
0.37975990772247314 -0.4152171015739441 7.028037071228027 248 255 245
0.18214797973632812 1.0568703413009644 7.216793537139893 153 154 146
0.5063788294792175 -0.3057500123977661 7.186201095581055 206 197 180
0.7121720910072327 -0.005473442375659943 7.536885738372803 94 80 80
0.4224798381328583 0.23345454037189484 7.22086238861084 112 128 143
0.5361489653587341 -0.25585225224494934 7.228858947753906 59 58 56
0.7298757433891296 0.8291784524917603 7.701103210449219 89 112 118
-0.15859930217266083 1.7065852880477905 6.652944087982178 85 103 107
0.2332635223865509 0.34826770424842834 7.074737071990967 117 139 137
0.5566450357437134 0.29696908593177795 7.42974853515625 29 39 48
-0.2913338243961334 1.2059797048568726 6.464532375335693 60 83 125
0.034885652363300323 1.0218253135681152 7.097479820251465 34 55 46
0.40308189392089844 1.426991581916809 7.361881732940674 100 102 97
0.8120961785316467 -0.5887320637702942 7.500965595245361 102 97 78
-0.17567209899425507 1.7029972076416016 6.626094818115234 37 48 76
0.19164493680000305 0.08367688953876495 6.90795373916626 164 180 170
-0.2143390029668808 1.3851886987686157 6.587795734405518 75 96 125
0.25052985548973083 0.3777182102203369 7.095386981964111 119 125 123
0.6578820943832397 -0.20365788042545319 7.443262577056885 142 114 102
-0.35814741253852844 1.84000563621521 6.363671779632568 81 82 113
0.4172135293483734 -0.008110235445201397 7.125442028045654 124 103 86
0.174467995762825 0.42430880665779114 7.045727252960205 81 72 67
0.04873861372470856 1.70046067237854 6.962240695953369 67 90 98
0.40645700693130493 0.05141576752066612 7.1338300704956055 152 143 114
0.6268054246902466 -0.22450917959213257 7.377440929412842 154 125 111
0.1943306028842926 0.20290103554725647 6.955181121826172 158 175 167
0.6164425015449524 -0.4498552680015564 7.385626792907715 118 102 89
0.6671934723854065 -0.08976048976182938 7.479741096496582 77 59 55
-0.09871376305818558 1.471706748008728 6.7918381690979 63 69 83
-0.41060012578964233 -1.2893813848495483 7.577019691467285 156 183 164
0.6164425015449524 -0.4498552680015564 7.385626792907715 118 102 89
0.809802770614624 -0.5632867217063904 7.503283977508545 99 91 80
0.5527377724647522 -0.37674593925476074 7.275212287902832 182 154 142
-1.254783272743225 -1.5094261169433594 5.0558295249938965 221 231 241
-0.0236885417252779 1.7413747310638428 6.864514350891113 67 76 109
0.7970214486122131 -0.5174962282180786 7.499589920043945 64 62 63
-0.7784523367881775 1.2837634086608887 6.18561315536499 159 160 181
0.5809015035629272 -0.3423738479614258 7.301723003387451 127 93 83
-1.5302283763885498 0.2093367725610733 6.615349769592285 26 30 39
0.4632355570793152 0.31375962495803833 7.310888767242432 34 34 42
-0.23271775245666504 1.1475303173065186 6.795031547546387 119 140 143
0.5870331525802612 -0.23834079504013062 7.3078813552856445 165 144 117
0.7994650602340698 -0.2513315975666046 7.601999759674072 138 157 153
0.23490364849567413 0.858343780040741 7.341041564941406 42 43 45
0.5943722724914551 1.306382656097412 7.5776238441467285 53 48 70
0.5734685659408569 -0.28714486956596375 7.2847161293029785 163 127 103
-0.19857552647590637 1.7268942594528198 6.595731258392334 47 45 94
0.5632290244102478 -0.23956814408302307 7.273247241973877 185 159 134
0.396518737077713 0.2568628191947937 7.208957672119141 83 103 110
0.7958925366401672 1.1591548919677734 7.790631294250488 151 214 255
0.3869946599006653 -0.17003650963306427 7.052481651306152 181 184 163
0.6976511478424072 1.16217041015625 7.6900434494018555 125 147 158
0.48400813341140747 0.3188393712043762 7.336692810058594 95 104 101
0.4958888590335846 1.5057812929153442 7.481038570404053 36 54 94
0.5722567439079285 0.06145734712481499 7.350828170776367 75 70 77
0.8241003155708313 -0.5053955316543579 7.562041759490967 140 156 146
0.6671934723854065 -0.08976048976182938 7.479741096496582 77 59 55
0.27726486325263977 1.5402684211730957 7.221790313720703 68 71 102
0.14179684221744537 0.10733720660209656 6.865655422210693 162 173 157
0.11418212950229645 0.2909018397331238 6.9230828285217285 56 54 57
0.5641161799430847 -0.2850825786590576 7.271971702575684 198 164 139
0.6671505570411682 -0.029831906780600548 7.485723495483398 124 103 100
0.6731640696525574 0.7800770401954651 7.62725830078125 135 109 110
-0.10884351283311844 1.665759563446045 6.726465702056885 51 45 83
0.5957671999931335 -0.17160135507583618 7.33031702041626 83 66 58
-0.13901874423027039 1.3784632682800293 6.58571195602417 25 33 72
0.6598027944564819 -0.1736658364534378 7.453439712524414 122 95 74
0.5230401158332825 0.3896344304084778 7.430906772613525 25 40 59
-0.2767043709754944 1.293313980102539 6.50601053237915 163 177 178
-0.17057815194129944 1.6841137409210205 6.633233070373535 116 111 105
-0.761850893497467 1.312364101409912 6.191810607910156 178 176 155
0.4959307610988617 0.30318406224250793 7.343914985656738 34 46 58
0.37951257824897766 0.1775948703289032 7.149742126464844 99 119 120
0.19164493680000305 0.08367688953876495 6.90795373916626 164 180 170
0.4264650046825409 1.5187634229660034 7.406909942626953 17 27 52
0.37074849009513855 -0.3970577120780945 7.0141143798828125 138 149 143
0.4017503261566162 0.14884065091609955 7.165703296661377 150 166 165
0.6478572487831116 -0.19983966648578644 7.428108215332031 142 103 72
0.4293108582496643 0.004816223401576281 7.142604827880859 131 116 97
0.44393059611320496 -0.03349771350622177 7.153310298919678 168 155 120
-0.4754756987094879 1.4954254627227783 6.370179176330566 152 155 162
-0.09569910913705826 1.6994736194610596 6.758886337280273 71 65 103
0.342320054769516 -0.1534833014011383 7.002261638641357 180 188 164
0.5313733220100403 -0.003486630506813526 7.2751946449279785 85 75 66
-0.41114625334739685 1.4145071506500244 6.3782877922058105 84 108 144
0.278011292219162 1.4246498346328735 7.22380256652832 48 43 73
0.5771533846855164 1.2868375778198242 7.562079429626465 133 114 116
-0.23514333367347717 1.1726462841033936 6.524322986602783 100 130 156
0.30887168645858765 -0.3945017158985138 6.945305824279785 238 245 229
-1.8546478748321533 -0.5946261286735535 5.363137722015381 158 163 193
0.059477631002664566 1.5509637594223022 6.944021224975586 93 92 98
0.49604642391204834 0.061188798397779465 7.252378463745117 121 134 125
-1.730606198310852 -0.7096861600875854 5.647477149963379 144 163 195
0.7973293662071228 -0.20372499525547028 7.606255531311035 128 147 141
0.6268054246902466 -0.22450917959213257 7.377440929412842 154 125 111
-1.487291693687439 0.1976286917924881 7.958986282348633 129 124 120
0.8254095911979675 -0.6170077323913574 7.516388416290283 99 107 96
-0.11352187395095825 1.7191295623779297 6.742210865020752 46 40 74
0.5438531041145325 0.290393590927124 7.405961513519287 74 113 130
-0.12328881025314331 1.2428544759750366 6.956479072570801 202 209 193
0.6965072751045227 -0.202767014503479 7.486431121826172 48 38 37
0.3293367028236389 0.35147497057914734 7.163380146026611 103 119 106
0.47283855080604553 0.3799043297767639 7.35391902923584 24 31 41
0.6728206872940063 1.33818519115448 7.649785995483398 174 168 134
0.3852028548717499 -0.35714849829673767 7.028392314910889 202 213 199
0.5041497945785522 1.2467535734176636 7.516641139984131 62 62 64
-0.0592658706009388 1.5310592651367188 6.7982072830200195 59 53 79
0.5477508306503296 0.23422788083553314 7.383581161499023 94 122 143
-1.5302283763885498 0.2093367725610733 6.615349769592285 26 30 39
-0.06512473523616791 1.2989745140075684 6.939080715179443 227 239 215
-0.11576196551322937 1.7605059146881104 6.742359638214111 87 78 107
0.016894269734621048 1.2666407823562622 7.060005187988281 150 154 137
0.6447485685348511 -0.13797391951084137 7.418638229370117 119 99 72
-0.034126490354537964 1.753893494606018 6.857098579406738 21 27 53
0.4220030903816223 1.372058391571045 7.3785271644592285 120 114 92
0.7118269205093384 -0.20316758751869202 7.49827241897583 113 88 91
0.14379438757896423 0.1374080330133438 6.879896640777588 155 168 159
0.4599023163318634 0.16222639381885529 7.236739158630371 130 160 162
0.7363617420196533 -0.735913872718811 7.382989883422852 83 91 67
0.5797733068466187 -0.14224663376808167 7.3095927238464355 127 103 77
-0.22265642881393433 1.2946513891220093 6.570068836212158 65 91 118
0.5879883766174316 0.05573336035013199 7.372217178344727 118 111 105
0.1863841861486435 0.17314358055591583 6.931948661804199 141 154 145
0.29589465260505676 -0.3208233118057251 6.931624412536621 220 235 216
0.33308976888656616 1.5821601152420044 7.311855792999268 46 49 94
-0.09871376305818558 1.471706748008728 6.7918381690979 63 69 83
-0.09189831465482712 1.7371699810028076 6.775853157043457 77 76 108
-0.249431774020195 1.5245296955108643 6.612832069396973 98 88 96
-0.12608416378498077 1.3573230504989624 6.942770004272461 217 230 213
0.28766995668411255 -0.1107371598482132 6.947269916534424 202 211 192
0.6788352131843567 -0.08000341802835464 7.498967170715332 49 43 45
0.7461238503456116 -0.6694490313529968 7.4073686599731445 43 37 37
0.440212219953537 -0.08622889220714569 7.13763952255249 166 173 155
0.33639776706695557 0.3363664746284485 7.166491508483887 41 59 63
0.5766246914863586 -0.35368484258651733 7.301739692687988 163 129 101
0.2536878287792206 0.9195103645324707 7.366131782531738 49 48 53
0.12904660403728485 1.208058476448059 7.1292805671691895 84 117 108
0.37537819147109985 -0.6649658679962158 7.092424392700195 110 112 107
0.21319718658924103 -0.07606324553489685 6.878166675567627 200 204 189
0.6671505570411682 -0.029831906780600548 7.485723495483398 124 103 100
0.5148151516914368 -0.18963107466697693 7.211637496948242 176 173 156
-0.2572273015975952 1.510333776473999 6.602038860321045 36 38 35
0.49021199345588684 0.35264888405799866 7.36087703704834 95 113 125
0.39345401525497437 1.510955572128296 7.361867904663086 24 40 56
0.43211084604263306 0.3178737759590149 7.2723708152771 37 40 55
-0.26068246364593506 1.082376480102539 6.471154689788818 113 146 179
0.3830221891403198 -0.15709877014160156 7.046299457550049 193 202 181
0.4195324778556824 0.37443190813064575 7.2873406410217285 75 76 81
-0.209715336561203 1.7888046503067017 6.598274230957031 123 130 122
-0.18572920560836792 1.7124131917953491 6.606418609619141 82 83 103
0.5775851607322693 -0.17873044312000275 7.303006172180176 156 132 108
-0.3866226375102997 1.947420597076416 6.3529276847839355 27 33 67
0.9964962005615234 0.5502696633338928 7.90989875793457 170 230 255
0.4477716386318207 0.24496978521347046 7.265494346618652 46 51 54
0.6954527497291565 1.2539894580841064 7.682339668273926 101 97 114
-0.22646625339984894 1.1769208908081055 6.548677921295166 72 95 127
0.45281821489334106 0.058371733874082565 7.194659233093262 134 137 116
-0.12885305285453796 1.5825825929641724 6.70514440536499 108 97 111
0.5894320607185364 1.2870405912399292 7.574728488922119 84 70 85
0.6218814849853516 1.2568787336349487 7.611473083496094 156 139 129
0.5555548667907715 0.13741034269332886 7.349841594696045 109 110 112
0.5844135880470276 0.15969505906105042 7.4046549797058105 106 131 151
0.41025006771087646 1.4666000604629517 7.376431941986084 49 58 75
0.5568774938583374 0.2012774646282196 7.384309768676758 83 108 128
0.6190994381904602 -0.35153815150260925 7.3829240798950195 83 67 68
0.518174946308136 -0.14992810785770416 7.220790386199951 115 93 80
0.23800311982631683 0.09823565930128098 6.951523303985596 128 144 131
0.8342440724372864 -0.7104605436325073 7.505929946899414 106 114 101
0.6734116077423096 -0.1486884206533432 7.482656002044678 84 78 80
0.2008267343044281 0.8362787365913391 7.314244270324707 64 60 59
0.7609751224517822 -0.35891473293304443 7.498030662536621 123 100 84
0.6735712289810181 0.5347122550010681 7.59757661819458 60 53 45
0.30846697092056274 -0.23341459035873413 6.946425914764404 189 191 177
0.47662588953971863 0.012611985206604004 7.205713748931885 130 115 96
0.10392549633979797 1.4545460939407349 7.009631156921387 190 196 182
-0.4018969237804413 1.986860990524292 6.355659008026123 29 42 94
0.3970881998538971 0.11653964221477509 7.1470794677734375 119 134 129
0.41131243109703064 1.3752038478851318 7.371250152587891 129 127 104
0.3264614939689636 1.126502275466919 7.427924156188965 93 92 97
-0.3153371214866638 1.2127149105072021 6.43880033493042 50 78 117
0.5398637056350708 0.37154170870780945 7.441171169281006 74 97 105
0.650215208530426 0.019039461389183998 7.467982292175293 126 107 101
0.597409725189209 -0.683183491230011 7.311787128448486 101 77 73
-0.14857231080532074 1.6640642881393433 6.66667366027832 57 52 72
0.5005706548690796 1.3266351222991943 7.4742112159729 65 56 73
-0.19682379066944122 1.7999296188354492 6.620199680328369 94 113 128
0.21906471252441406 -0.1416471153497696 6.865025997161865 138 143 123
-0.05550948530435562 1.7333115339279175 6.824305534362793 42 42 68
0.7925888299942017 -0.6160338521003723 7.4551310539245605 161 156 124
-0.2212292104959488 0.5428858399391174 7.178252220153809 100 101 119
0.6056642532348633 -0.4255772829055786 7.384788513183594 81 57 55
0.3081481456756592 0.16364531219005585 7.0616607666015625 156 174 174
0.20970748364925385 1.0439938306808472 7.291985511779785 113 111 86
0.4008200168609619 1.1191118955612183 7.496941566467285 52 52 52
0.4175519645214081 0.29573196172714233 7.242412567138672 79 85 97
0.07627751678228378 1.4231442213058472 6.988472938537598 210 218 207
0.6543262004852295 -0.1887734979391098 7.438441753387451 113 87 64
-0.05798589810729027 1.4794796705245972 6.834335803985596 138 141 146
0.156243696808815 0.060561973601579666 6.862605571746826 114 121 103
-0.3441773056983948 1.7389575242996216 6.366520404815674 70 50 52
0.3660662770271301 -0.45953455567359924 7.02139949798584 240 241 227
0.5119134187698364 0.8994474411010742 7.223698139190674 32 37 69
0.4586450755596161 -0.06410211324691772 7.163759231567383 175 179 165
-0.022782042622566223 1.371291995048523 6.911345481872559 218 234 224
0.474566787481308 0.10081078857183456 7.231955051422119 116 122 112
-0.10559556633234024 1.794908881187439 6.774450778961182 32 35 78
0.589820384979248 0.14859594404697418 7.412825584411621 105 109 120
-0.2547627389431 1.2919782400131226 6.535759449005127 44 50 62
0.20380465686321259 0.4252462387084961 7.069746017456055 81 69 71
-0.07572474330663681 1.4153928756713867 6.853738784790039 150 157 163
0.6016780734062195 0.17991134524345398 7.449747085571289 31 40 47
-0.2486725002527237 1.0836611986160278 6.493282794952393 105 138 169
0.624474823474884 -0.14021530747413635 7.3853325843811035 75 53 40
0.33298468589782715 -0.2591041922569275 6.974084377288818 197 199 185
0.39241892099380493 -0.25267118215560913 7.038569450378418 196 207 193
0.7770658731460571 -0.3102441430091858 7.545825481414795 121 121 119
0.36243730783462524 0.4023057818412781 7.2331342697143555 68 67 65
0.7130823731422424 0.12682278454303741 6.8863444328308105 22 40 60
0.513960063457489 -0.2248675525188446 7.206625938415527 107 106 76
-1.5435854196548462 -1.1033858060836792 5.275533676147461 159 174 181
0.18118984997272491 0.028578951954841614 6.877863883972168 180 193 176
0.30376625061035156 1.0460213422775269 7.4023261070251465 52 63 59
0.2082730531692505 0.07223571836948395 6.915441513061523 148 155 139
-1.3003616333007812 -0.5338318943977356 6.744207382202148 148 173 230
0.6871936917304993 -0.6357827186584473 7.388241767883301 132 111 110
0.06904333084821701 1.4751029014587402 6.981771469116211 33 30 37
0.7523545026779175 0.7682010531425476 7.697757720947266 139 167 168
0.03700152412056923 1.0301668643951416 7.071881294250488 178 169 136
-0.26397308707237244 1.2071291208267212 6.494006156921387 52 72 96
0.51183021068573 0.4184858202934265 7.426876544952393 28 37 46
0.23635408282279968 1.5945591926574707 7.181160926818848 47 58 90
0.5402829647064209 -0.22074154019355774 7.247416019439697 156 131 111
0.5863124132156372 -0.31896987557411194 7.30604362487793 160 129 101
0.8585147261619568 -0.5715391039848328 7.58835506439209 130 131 123
0.5446680188179016 1.267796277999878 7.5388898849487305 67 72 76
0.4755120575428009 0.41328245401382446 7.37446403503418 81 96 93
0.7418140172958374 -0.2320777028799057 7.5105509757995605 88 61 54
0.036553625017404556 0.9010379314422607 7.158698558807373 87 71 58
0.28120967745780945 0.021819619461894035 6.981293678283691 191 206 183
0.19429472088813782 0.36187049746513367 7.017592906951904 87 83 74
0.289548397064209 0.15110372006893158 7.040745258331299 129 146 140
0.07977195829153061 1.6762138605117798 6.999783039093018 26 41 80
0.19730889797210693 0.47406724095344543 7.103839874267578 25 36 30
0.30166876316070557 -0.09470663964748383 6.964745998382568 198 210 196
-0.2917928993701935 1.1444417238235474 6.459598541259766 37 38 59
0.7528218030929565 -0.7512286901473999 7.364531517028809 213 208 188
-0.300310879945755 1.5274337530136108 6.536870956420898 121 115 117
0.6410306096076965 0.0499553382396698 7.461976528167725 91 76 73
0.4453827142715454 0.18273688852787018 7.2313995361328125 108 135 146
0.4182552099227905 0.3961692750453949 7.293793201446533 63 61 66
-0.5604409575462341 1.531105399131775 6.263850212097168 163 169 169
0.15438660979270935 0.1456085592508316 6.893678665161133 70 80 79
0.7381855249404907 0.5998244285583496 7.691057205200195 132 156 160
0.440212219953537 -0.08622889220714569 7.13763952255249 166 173 155
0.07429139316082001 1.4510596990585327 6.974013805389404 157 162 139
0.6257702708244324 0.05068058893084526 7.4336323738098145 108 105 100
0.6871936917304993 -0.6357827186584473 7.388241767883301 132 111 110
-0.5851433873176575 1.5386924743652344 6.225806713104248 164 170 168
0.07579078525304794 1.3009765148162842 7.06954288482666 154 159 162
-0.1628180891275406 1.4085853099822998 6.7819342613220215 154 169 162
0.027639394626021385 1.3290718793869019 6.993539333343506 172 182 174
0.05157775804400444 1.3277814388275146 7.024435520172119 178 185 177
0.18118984997272491 0.028578951954841614 6.877863883972168 180 193 176
-0.11945275217294693 1.646973729133606 6.707332134246826 60 45 84
0.07245800644159317 1.3112210035324097 7.060176372528076 207 216 197
-0.7152035236358643 -1.8758560419082642 6.599979400634766 64 81 125
-0.22533367574214935 1.684075117111206 6.550776958465576 67 58 77
0.29489269852638245 -0.2847869396209717 6.931591510772705 217 226 209
-1.2287997007369995 -1.5327728986740112 5.544169902801514 218 230 246
0.2937726676464081 0.45113950967788696 7.184389591217041 38 42 45
-0.5913410782814026 1.5000146627426147 6.217273235321045 37 45 32
-0.4142833650112152 1.4870574474334717 6.447459697723389 30 32 45
-0.19857552647590637 1.7268942594528198 6.595731258392334 47 45 94
-1.3201937675476074 -0.5291368365287781 6.702259540557861 157 181 225
0.45360371470451355 0.4272201359272003 7.351400852203369 54 59 62
0.3234277069568634 -0.3471495509147644 6.96189546585083 205 211 177
0.47392213344573975 -0.5943982601165771 7.2539238929748535 98 81 73
0.4977700412273407 0.4309398829936981 7.41997766494751 37 42 48
-0.3493189513683319 0.7531928420066833 6.764174938201904 168 233 255
0.3693627417087555 -0.4667593240737915 7.030068397521973 162 163 155
-0.2997293174266815 1.3510786294937134 6.487773418426514 72 91 123
-0.23393777012825012 1.508060097694397 6.629514217376709 30 31 33
0.575486958026886 -0.15683786571025848 7.304322719573975 167 144 128
0.5963146686553955 -0.36145487427711487 7.332209587097168 86 71 66
0.01493170764297247 1.4677261114120483 6.906352996826172 38 46 57
0.13980963826179504 0.06182096526026726 6.848063945770264 133 145 121
0.6739675998687744 -0.4577084481716156 7.429028511047363 140 116 114
0.289548397064209 0.15110372006893158 7.040745258331299 129 146 140
0.6803948283195496 -0.11966084688901901 7.501490592956543 71 58 65
-0.1184166893362999 1.739890456199646 6.73660135269165 36 39 82
0.4882792532444 -0.4107021689414978 7.167490005493164 193 205 185
0.7056589722633362 1.1536086797714233 7.703897476196289 106 124 136
-0.3360789120197296 1.331369161605835 6.430853843688965 185 196 190
0.6135514974594116 -0.1925046294927597 7.354432582855225 145 117 93
0.37167859077453613 0.9685198664665222 7.497730731964111 36 31 35
0.10520961135625839 0.30870378017425537 6.924499034881592 135 121 112
0.52202308177948 -0.4272998869419098 7.218130588531494 208 213 190
-0.04801592975854874 1.4072887897491455 6.867042541503906 172 174 173
0.6995471715927124 0.10800303518772125 7.549227237701416 79 69 70
0.665820837020874 1.1783475875854492 7.646480560302734 169 160 127
0.37105363607406616 0.17583300173282623 7.138089179992676 144 162 162
0.6049522757530212 1.3432308435440063 7.572556018829346 45 42 61
0.4704015254974365 0.4784427583217621 7.41544771194458 24 29 33
0.6847471594810486 0.49651163816452026 7.5937981605529785 67 59 82
-0.5701958537101746 1.5073800086975098 6.246914386749268 148 153 159
-0.3441773056983948 1.7389575242996216 6.366520404815674 70 50 52
0.052259188145399094 1.4982060194015503 6.936145782470703 69 69 69
0.2748175263404846 0.4039144515991211 7.1389641761779785 94 103 102
0.5301680564880371 0.055591728538274765 7.288718223571777 82 76 76
-1.9220579862594604 0.08206978440284729 5.100759029388428 51 59 62
0.6729529500007629 -0.05966424196958542 7.5009636878967285 95 79 79
0.3885825276374817 1.3438053131103516 7.3555169105529785 59 54 58
0.3440866470336914 0.42287763953208923 7.222878456115723 57 58 62
0.8308457136154175 -0.730900228023529 7.48116397857666 217 220 199
0.26900723576545715 1.489227056503296 7.216748237609863 43 36 54
0.17241384088993073 0.9777786731719971 7.307642936706543 33 38 32
-0.4415229856967926 1.4616239070892334 6.369359493255615 53 62 69
0.6102818846702576 -0.22563588619232178 7.343474864959717 149 120 102
0.28574618697166443 0.41630035638809204 7.152390956878662 44 52 65
0.19614572823047638 1.4885269403457642 7.12572717666626 66 69 86
0.22803953289985657 0.4668673276901245 7.124329566955566 30 35 39
-0.3772988021373749 1.942380428314209 6.374042510986328 11 22 42
0.25859397649765015 -0.22108353674411774 6.891871929168701 192 197 167
0.4534461498260498 1.0522565841674805 7.547137260437012 74 64 55
-0.13217128813266754 1.8018121719360352 6.7396745681762695 58 64 100
0.4127727150917053 1.451528549194336 7.3751540184021 37 47 46
0.5931692719459534 -0.5002841353416443 7.358004093170166 114 101 93
0.160386860370636 1.1374629735946655 7.198456287384033 21 21 21
0.4886275827884674 0.11554922163486481 7.257339000701904 151 171 169
0.3600676357746124 1.5436104536056519 7.335537910461426 67 73 89
0.8449143767356873 -0.7421790361404419 7.482855319976807 150 149 118
0.722367525100708 1.1384247541427612 7.712106704711914 129 158 162
0.4630206525325775 1.3109508752822876 7.439052104949951 175 166 149
0.47479405999183655 1.4548760652542114 7.449195861816406 114 122 107
0.4439704418182373 0.5066269636154175 7.4005446434021 24 28 31
-0.31638023257255554 1.838228702545166 6.448641777038574 84 77 111
0.47662588953971863 0.012611985206604004 7.205713748931885 130 115 96
-0.2589553892612457 1.2665880918502808 6.520754814147949 42 48 62
-0.25988999009132385 1.753149151802063 6.514275550842285 40 45 74
0.2721724212169647 1.4063993692398071 7.218355178833008 71 58 68
-0.28822144865989685 1.8328372240066528 6.498441219329834 76 73 100
0.5256733298301697 0.08501933515071869 7.294522762298584 98 87 81
0.4723445773124695 0.027291418984532356 7.2097392082214355 49 47 60
0.6650974750518799 1.1647253036499023 7.647644996643066 61 71 70
-0.2819887101650238 1.2352808713912964 6.486671447753906 48 58 59
0.39021289348602295 0.4811611473560333 7.310544967651367 21 30 37
0.22464655339717865 1.5093778371810913 7.154114723205566 136 126 125
-0.06756109744310379 1.3098971843719482 6.928614139556885 201 209 198
0.14211751520633698 1.076224446296692 7.17417049407959 137 142 136
0.5301680564880371 0.055591728538274765 7.288718223571777 82 76 76
0.3334105610847473 -0.37932324409484863 6.976461410522461 226 240 227
-0.12632499635219574 -0.04120289161801338 7.637441158294678 128 135 117
0.5564612150192261 -0.6001359820365906 7.3111958503723145 124 101 95
0.4372721016407013 0.23483555018901825 7.251680374145508 32 43 65
0.21331697702407837 1.400749683380127 7.15169095993042 134 137 142
0.6317770481109619 0.062298063188791275 7.444826126098633 87 75 75
0.5410939455032349 -0.16533063352108002 7.253407001495361 163 151 139
0.5565380454063416 -0.32908135652542114 7.26411771774292 192 168 156
0.129583477973938 1.4610289335250854 7.045380592346191 180 177 170
-0.09644263982772827 1.7797209024429321 6.7784576416015625 67 59 106
0.5752774477005005 -0.3323785364627838 7.291590690612793 184 159 139
0.5809015035629272 -0.3423738479614258 7.301723003387451 127 93 83
-0.3470953106880188 1.353829264640808 6.441540718078613 71 94 125
0.10184832662343979 -0.004706599283963442 6.8067755699157715 149 159 148
-0.31917035579681396 1.7455536127090454 6.417861461639404 114 92 113
-0.38484427332878113 1.529988408088684 6.449306011199951 38 39 41
0.7085712552070618 -0.3130779564380646 7.471005439758301 101 67 55
0.368857204914093 1.3564262390136719 7.3322930335998535 158 155 148
-0.010173018090426922 1.5798481702804565 6.844526290893555 139 146 138
0.24210795760154724 -0.14862629771232605 6.892703533172607 183 187 160
0.6886292695999146 -0.49628201127052307 7.424361705780029 139 119 110
0.27708789706230164 1.130942702293396 7.36700439453125 94 101 94
0.24434241652488708 1.4234205484390259 7.184354305267334 146 139 147
0.42662015557289124 0.864948570728302 7.51510763168335 51 42 35
0.4587162733078003 0.2435397207736969 7.2746477127075195 113 130 150
0.7036864161491394 0.9182948470115662 7.674673080444336 102 130 134
0.3014403283596039 -0.37629374861717224 6.940824031829834 238 247 230
0.2510997951030731 1.1752225160598755 7.304177284240723 15 19 18
-0.14083686470985413 0.9102084636688232 6.932982444763184 94 132 133
0.3798607587814331 0.9961081147193909 7.504281520843506 42 38 39
0.4196034073829651 -0.1329161375761032 7.099346160888672 166 170 153
0.12512610852718353 0.06315503269433975 6.837326526641846 171 185 168
0.39614975452423096 0.409641295671463 7.276592254638672 59 63 62
0.40134721994400024 0.37348702549934387 7.264747619628906 63 64 66
-0.04011879861354828 1.5685408115386963 6.815334320068359 59 56 63
0.3183547258377075 1.4289299249649048 7.267148494720459 53 48 68
0.428331196308136 1.1437486410140991 7.543528079986572 47 52 55
-0.2355998307466507 1.535541296005249 6.611745834350586 91 71 80
0.7233923077583313 1.2833889722824097 7.705783843994141 82 81 112
0.6850724220275879 -0.0946659967303276 7.504795551300049 56 41 44
-0.9645282030105591 -1.7899518013000488 5.956761837005615 163 178 199
0.7558214068412781 -0.19231073558330536 7.53418493270874 102 80 82
0.057095907628536224 1.4622794389724731 6.960073471069336 34 33 51
0.3304576277732849 1.0254366397857666 7.434769630432129 69 66 57
0.34878742694854736 0.51121985912323 7.278462886810303 27 35 38
0.588663637638092 -0.3515680730342865 7.314183235168457 156 133 119
-0.23118631541728973 1.4627834558486938 6.61679220199585 54 62 64
-1.8584654331207275 0.3193117678165436 5.936404228210449 125 134 173
0.8055550456047058 0.39993739128112793 7.496375560760498 79 61 61
0.4780513048171997 -0.3929084539413452 7.146251201629639 201 206 199
0.5524696111679077 -0.39230918884277344 7.260336399078369 201 175 158
-0.12587712705135345 1.6078860759735107 6.701514720916748 158 143 150
-0.12651677429676056 1.4729288816452026 6.761992931365967 89 91 86
0.3127794861793518 0.9224279522895813 7.443479537963867 10 14 15
0.6223487257957458 -0.3621261715888977 7.3906683921813965 118 107 101
0.29240882396698 0.16438187658786774 7.045763969421387 163 177 177
0.7085712552070618 -0.3130779564380646 7.471005439758301 101 67 55
-0.7716813683509827 -1.9624512195587158 6.255807399749756 155 169 214
0.8688098192214966 -0.7346928715705872 7.553360939025879 206 218 208
0.21243320405483246 0.4941132366657257 7.1231279373168945 33 35 47
-0.209715336561203 1.7888046503067017 6.598274230957031 123 130 122
-0.364846408367157 1.7737799882888794 6.330074787139893 84 83 89
0.34011438488960266 1.148004174232483 7.428195476531982 39 44 48
0.19454507529735565 0.9257487654685974 7.315279960632324 76 73 64
0.736870527267456 -0.04791655391454697 7.544977188110352 91 77 68
0.5240204930305481 -0.218239426612854 7.224915504455566 152 128 104
0.11236259341239929 0.08360592275857925 6.834586143493652 154 159 139
0.24848835170269012 1.2093408107757568 7.346036911010742 21 21 21
0.13724781572818756 -0.055046431720256805 6.818897247314453 96 93 74
0.3321380019187927 -0.39180120825767517 6.966916084289551 240 250 239
-0.3404645025730133 1.5312929153442383 6.4895830154418945 157 150 132
0.4216592311859131 0.33790817856788635 7.260560989379883 30 37 45
0.8351094126701355 -0.6325298547744751 7.54413366317749 138 154 151
0.8351094126701355 -0.6325298547744751 7.54413366317749 138 154 151
0.5804925560951233 -0.5353288054466248 7.342257499694824 96 82 81
0.4886275827884674 0.11554922163486481 7.257339000701904 151 171 169
0.16531455516815186 0.322918564081192 6.9875407218933105 84 76 73
-0.6036645770072937 1.5364131927490234 6.180338382720947 47 42 46
0.554662823677063 -0.31431451439857483 7.2603840827941895 175 150 119
-1.9072610139846802 -0.45344534516334534 5.559741020202637 133 140 150
-0.30266445875167847 1.8433517217636108 6.475042343139648 80 69 109
0.529174268245697 -0.37832990288734436 7.224116325378418 206 188 164
0.575486958026886 -0.15683786571025848 7.304322719573975 167 144 128
0.5497549176216125 0.164018452167511 7.365921974182129 48 55 61
-0.13143691420555115 1.4593194723129272 6.758049011230469 204 206 184
0.15835188329219818 -0.13768793642520905 6.812608242034912 186 189 170
0.4824146330356598 -0.07042482495307922 7.189936637878418 126 137 121
0.6683856844902039 1.0304083824157715 7.641788005828857 104 106 95
0.11767712235450745 0.3143923580646515 6.938268661499023 111 93 83
0.40127089619636536 1.509207844734192 7.370295524597168 62 76 87
0.8715040683746338 -0.5361281633377075 7.607651710510254 118 115 84
0.18233363330364227 0.22634465992450714 6.959449291229248 131 145 132
0.2864170968532562 1.433345079421997 7.231032848358154 116 100 110
0.25556761026382446 1.4356136322021484 7.199199199676514 162 146 156
0.428331196308136 1.1437486410140991 7.543528079986572 47 52 55
0.30690911412239075 0.003971600439399481 7.001091957092285 175 183 168
0.49468934535980225 0.4385899305343628 7.423662185668945 31 36 42
0.2303953468799591 0.07073397189378738 6.938259124755859 135 145 121
0.12297878414392471 0.21721677482128143 6.8987836837768555 118 133 114
0.19775839149951935 1.6175023317337036 7.150491714477539 19 24 53
-0.3772988021373749 1.942380428314209 6.374042510986328 11 22 42
0.21450749039649963 1.4248377084732056 7.145442962646484 64 64 66
-0.059646133333444595 1.6742942333221436 6.802578449249268 94 77 109
0.38230961561203003 -0.1404903531074524 7.0528693199157715 196 200 177
-0.2675803601741791 1.6970548629760742 6.49463415145874 145 136 153
-0.3397270143032074 1.5291826725006104 6.805639743804932 103 84 88
-0.049536433070898056 1.5492241382598877 6.810105323791504 57 53 67
0.68145352602005 1.3638384342193604 7.66065788269043 148 145 130
0.35602137446403503 -0.6376761794090271 7.062686920166016 105 107 104
0.1830071657896042 1.463149905204773 7.10693359375 35 37 58
0.13724781572818756 -0.055046431720256805 6.818897247314453 96 93 74
0.5661464333534241 -0.0933072566986084 7.3056864738464355 153 127 110
0.52977454662323 -0.15814101696014404 7.237074375152588 127 104 96
-0.13836488127708435 0.7999929785728455 6.997798919677734 183 171 159
0.22278234362602234 1.3909504413604736 7.165928363800049 53 55 50
0.694053053855896 1.3217895030975342 7.6775078773498535 45 56 84
-0.35375550389289856 1.2138077020645142 6.399069786071777 63 91 128
0.8113396763801575 -0.7340417504310608 7.445417881011963 105 113 90
-0.27057182788848877 1.6760963201522827 6.497735500335693 171 161 172
-0.8913862705230713 -1.6200871467590332 6.535768985748291 148 168 175
-0.3949299156665802 1.9470590353012085 6.337865829467773 80 95 138
-0.3404645025730133 1.5312929153442383 6.4895830154418945 157 150 132
-1.4830975532531738 -0.24516040086746216 6.730439186096191 204 220 236
0.4686203598976135 0.3223279118537903 7.318141460418701 90 96 92
0.5716858506202698 -0.4050789475440979 7.356720447540283 169 140 110
-0.5680364966392517 1.473242998123169 6.281810760498047 164 168 169
0.22118711471557617 0.4814263582229614 7.131666660308838 77 63 63
0.7750282883644104 -0.517849862575531 7.470239162445068 124 110 110
0.8681685924530029 -0.7193295955657959 7.554206371307373 105 113 102
0.1635809987783432 1.1936414241790771 7.177637577056885 34 65 59
-0.2988021969795227 1.8204237222671509 6.472246170043945 48 41 85
0.5987280011177063 -0.5749295353889465 7.348351001739502 72 66 68
0.3103904128074646 -0.36455121636390686 6.945199012756348 201 207 193
0.6545032262802124 1.2219939231872559 7.653473377227783 29 35 51
0.5607221126556396 -0.32011932134628296 7.267511367797852 189 168 141
0.8776641488075256 -0.573314368724823 7.606420040130615 91 94 63
-0.2890356481075287 0.77199786901474 6.818349838256836 138 141 122
0.49064117670059204 1.4978276491165161 7.4730119705200195 26 58 73
0.32300636172294617 -0.15125977993011475 6.983485698699951 206 221 202
0.7910209894180298 -0.6287741661071777 7.452766418457031 156 153 118
-0.09650009870529175 1.6354944705963135 6.744059085845947 52 49 66
-0.1952408403158188 1.3488940000534058 6.608120441436768 77 97 124
0.15290550887584686 1.2355046272277832 7.15385627746582 65 96 62
-0.4625124931335449 1.630478024482727 6.520724296569824 133 130 137
-0.2833888828754425 1.9025262594223022 6.527740955352783 57 56 96
0.8268720507621765 -0.649044394493103 7.540585041046143 130 142 138
0.6089156270027161 0.6245266199111938 7.580944061279297 47 39 37
0.4775451719760895 0.27464723587036133 7.308619499206543 87 125 134
0.11277372390031815 1.1482254266738892 7.113636016845703 69 109 100
-0.18572920560836792 1.7124131917953491 6.606418609619141 82 83 103
-0.4142833650112152 1.4870574474334717 6.447459697723389 30 32 45
0.21078479290008545 0.04961559921503067 6.914126873016357 134 142 129
0.674080491065979 -0.032213907688856125 7.504771709442139 93 77 80
0.5556424856185913 0.15211360156536102 7.361996650695801 111 134 140
0.4786852300167084 1.5048598051071167 7.458696365356445 62 88 103
0.5918542742729187 -0.10393482446670532 7.340921401977539 90 71 73
0.10842074453830719 0.28306323289871216 6.913318157196045 132 136 137
-0.22616688907146454 1.817805290222168 6.583099365234375 65 96 125
0.7757161259651184 -0.6395139694213867 7.447631359100342 121 123 86
0.39435261487960815 0.5743637084960938 7.427456378936768 15 25 24
0.5718867182731628 0.14227606356143951 7.3765869140625 61 71 70
-0.7686524987220764 1.4091709852218628 6.131170272827148 92 102 112
-0.7370262145996094 1.4492079019546509 6.141239166259766 177 177 179
0.6042056083679199 0.29167065024375916 7.508164882659912 20 29 34
-0.6021609306335449 1.5101345777511597 6.196928024291992 171 178 171
0.5559723973274231 -0.01810014434158802 7.3067193031311035 88 72 57
-0.7222088575363159 -1.9475781917572021 5.665174961090088 162 180 190
0.24477384984493256 1.0459990501403809 7.33290958404541 117 111 85
-0.2838694155216217 1.098672866821289 6.452739715576172 37 47 98
0.13588425517082214 1.4511630535125732 7.054739475250244 77 77 67
0.4347594678401947 0.49513494968414307 7.37534236907959 46 50 51
-0.44555899500846863 1.432146668434143 6.350379943847656 35 43 56
-0.35441023111343384 1.1439894437789917 6.408840656280518 130 157 176
-0.3906566798686981 1.4005229473114014 6.396210193634033 100 128 168
0.371286004781723 1.5273233652114868 7.345963001251221 16 26 51
0.03805423900485039 0.8465848565101624 7.149106979370117 90 77 60
0.5800716280937195 1.262137532234192 7.563342094421387 108 91 99
0.5963971614837646 -0.20516812801361084 7.32935905456543 137 115 101
0.37136709690093994 1.551979660987854 7.346202373504639 12 25 44
0.4827704131603241 0.2816128134727478 7.320748329162598 82 107 129
-0.6873806118965149 1.4513686895370483 6.199749946594238 66 85 83
0.31989455223083496 -0.4481494724750519 6.972039222717285 244 253 232
0.7425188422203064 -0.13622531294822693 7.528493404388428 128 98 98
0.16950854659080505 1.2254555225372314 7.175317287445068 104 139 106
0.3459055721759796 1.460357427597046 7.306424617767334 79 68 102
0.684772253036499 -0.48172327876091003 7.425135135650635 101 81 72
-1.8335721492767334 -0.8603035807609558 5.186112403869629 87 92 112
0.5216376185417175 1.020695447921753 7.58502197265625 93 73 72
0.4913671314716339 -0.6576176881790161 7.254199981689453 121 103 99
0.7217147946357727 1.1150453090667725 7.71454381942749 94 113 128
0.3127794861793518 0.9224279522895813 7.443479537963867 10 14 15
-0.09522346407175064 1.4840890169143677 6.789778232574463 155 163 165
0.49649694561958313 -0.4144555330276489 7.181423664093018 203 202 184
0.33639776706695557 0.3363664746284485 7.166491508483887 41 59 63
0.16141575574874878 1.395723819732666 7.114831447601318 98 99 101
0.41654685139656067 0.24814832210540771 7.218804836273193 107 125 135
0.3659246563911438 0.10994626581668854 7.111225605010986 120 134 119
0.5387863516807556 -0.4271353781223297 7.249398231506348 127 130 111
0.16741478443145752 -0.11872240155935287 6.826323509216309 160 163 142
0.3826097548007965 0.27038103342056274 7.181838035583496 109 128 132
0.909801185131073 -0.725376546382904 7.602346420288086 131 128 95
-0.4008640646934509 1.1891521215438843 6.246767997741699 94 108 108
-0.007376589812338352 1.6062984466552734 6.851006031036377 115 115 113
-0.05642729997634888 1.5245342254638672 6.808315753936768 183 176 192
0.3826097548007965 0.27038103342056274 7.181838035583496 109 128 132
0.6407715678215027 -0.5880341529846191 7.370163917541504 103 85 73
0.6175736784934998 -0.06727844476699829 7.387101173400879 127 109 89
0.2395848035812378 1.4764432907104492 7.178251266479492 49 49 59
0.458697110414505 0.08317750692367554 7.220418453216553 121 126 120
0.4009450376033783 0.16180528700351715 6.9253315925598145 56 65 80
-0.7497109770774841 1.4274606704711914 6.140615463256836 68 76 79
-0.37193724513053894 1.705357551574707 6.322022438049316 193 183 192
0.5589141249656677 0.5966968536376953 6.28641939163208 165 155 163
0.6081228256225586 0.7772095203399658 7.594085693359375 76 72 71
-0.02951403707265854 1.5142675638198853 6.832968711853027 50 49 45
0.04796437546610832 1.7338287830352783 6.967020034790039 28 37 70
-0.6036645770072937 1.5364131927490234 6.180338382720947 47 42 46
0.5809568166732788 -0.035173702985048294 7.339004993438721 93 75 63
0.7403654456138611 -0.21524707973003387 7.51654577255249 89 69 68
0.7830711603164673 -0.2228047102689743 7.586488723754883 133 147 147
-0.11797238886356354 0.42185115814208984 7.101318359375 97 92 88
0.7283585071563721 -0.5731500387191772 7.431216716766357 118 98 97
0.094057098031044 0.10562963783740997 6.8336181640625 165 181 170
0.5806673169136047 -0.21696409583091736 7.298880577087402 120 93 84
0.5246955156326294 1.0602638721466064 7.584150314331055 67 46 41
0.7464461326599121 0.49125897884368896 7.6761155128479 138 165 172
-0.2825438380241394 1.4539663791656494 6.540069580078125 22 28 42
-0.268215149641037 1.7834395170211792 6.511792182922363 71 68 97
-0.3644568622112274 1.1715198755264282 6.386977672576904 115 142 172
