ply
format ascii 1.0
element vertex 108
property float x
property float y
property float z
property uchar red
property uchar green
property uchar blue
end_header
0.4271725118160248 1.0173488855361938 5.1884541511535645 187 188 174
1.129699945449829 1.333504557609558 5.41981840133667 70 65 105
1.062629222869873 1.228945016860962 5.411846160888672 152 164 162
1.027727723121643 1.1947780847549438 5.380120754241943 113 138 142
0.9706133604049683 1.0438047647476196 5.434957027435303 66 76 85
0.41255462169647217 1.0182311534881592 5.175211429595947 182 179 170
1.2143350839614868 1.3551056385040283 5.47929048538208 151 156 160
0.6863580346107483 1.1709301471710205 5.2108154296875 91 114 104
0.5274038910865784 0.8659394383430481 5.231869220733643 187 186 165
1.1195191144943237 1.3015469312667847 5.432506561279297 71 90 105
0.46355774998664856 1.0105031728744507 5.201285362243652 202 204 190
0.49524566531181335 0.8461629152297974 5.204121112823486 158 132 95
0.2591654658317566 1.2123667001724243 5.0158610343933105 157 177 178
0.24055874347686768 0.07620899379253387 5.367171764373779 64 69 63
0.5782283544540405 1.048238754272461 5.298672676086426 169 151 111
1.2943042516708374 1.3563846349716187 5.515844345092773 133 137 140
1.3698399066925049 1.1738638877868652 5.50831937789917 82 113 131
0.33556991815567017 -0.019961439073085785 5.438868522644043 80 69 65
0.8885210752487183 1.2329286336898804 5.3218512535095215 164 180 177
0.3303561210632324 1.0109058618545532 5.152571678161621 173 174 168
0.41473323106765747 0.9839679002761841 5.189035415649414 173 179 175
0.7390639185905457 1.1196705102920532 5.44589900970459 114 105 110
0.9122191071510315 1.1563529968261719 5.295723915100098 105 105 131
0.8119837641716003 1.0092995166778564 5.452271938323975 110 116 104
0.24432295560836792 1.178087592124939 5.0120368003845215 136 152 149
0.7986524701118469 1.2477631568908691 5.292598724365234 154 169 176
0.21579304337501526 1.2544454336166382 5.008771896362305 92 97 101
0.33556991815567017 -0.019961439073085785 5.438868522644043 80 69 65
1.2961796522140503 1.3101340532302856 5.528308391571045 93 110 120
0.8667484521865845 1.0012258291244507 5.445997714996338 152 154 143
0.5231468081474304 0.9511257410049438 5.230528831481934 175 186 180
0.42781296372413635 0.9127960205078125 5.163052558898926 176 185 182
1.1547558307647705 1.2569843530654907 5.4530816078186035 100 114 127
0.44012942910194397 0.9624215960502625 5.179770469665527 195 204 199
0.7951900959014893 1.23843252658844 5.294764518737793 110 126 139
0.22743366658687592 0.06781962513923645 5.35575532913208 151 153 139
0.966101348400116 1.2415282726287842 5.356764793395996 166 182 172
0.2616659104824066 0.1208558976650238 5.398042678833008 190 191 175
0.8645857572555542 1.059328317642212 5.418595790863037 57 57 57
1.3546030521392822 1.2624675035476685 5.550980567932129 119 135 134
0.2691231369972229 0.10381229221820831 5.393561840057373 135 136 120
0.30446597933769226 -0.25200116634368896 5.546703815460205 131 107 105
0.6092942357063293 0.7804681658744812 5.296601295471191 174 144 106
1.4548958539962769 1.2770556211471558 5.598756790161133 66 86 95
1.218784213066101 1.2043495178222656 5.4767889976501465 64 71 79
1.0666972398757935 1.1596994400024414 5.376048564910889 85 88 129
0.9289100766181946 1.2245265245437622 5.331982612609863 121 146 153
0.5010331869125366 0.9580382108688354 5.213064193725586 173 182 177
0.44012942910194397 0.9624215960502625 5.179770469665527 195 204 199
0.25611943006515503 0.13330119848251343 5.378758430480957 77 83 95
0.24650219082832336 0.12000931054353714 5.3782267570495605 167 169 166
0.7620981335639954 1.2271851301193237 5.28123140335083 163 175 171
0.43678805232048035 0.9788396954536438 5.193559646606445 163 178 173
0.2676643431186676 0.880774974822998 5.125377655029297 136 138 137
0.4644271433353424 0.7903676629066467 5.172003746032715 154 112 87
1.003702998161316 1.0829344987869263 5.468532085418701 131 128 95
0.41473323106765747 0.9839679002761841 5.189035415649414 173 179 175
0.856965184211731 1.2294793128967285 5.307879447937012 172 188 187
1.434572696685791 1.249280571937561 5.601418495178223 104 128 130
1.0091702938079834 1.0428389310836792 5.474638938903809 87 98 94
1.323978304862976 1.1426408290863037 5.505041599273682 62 64 63
0.793531596660614 1.2208328247070312 5.2712297439575195 177 190 183
0.9119079113006592 1.043303370475769 5.432511329650879 162 159 140
0.8526596426963806 1.0529142618179321 5.426138877868652 142 136 114
0.9483493566513062 1.0394302606582642 5.446479320526123 177 166 144
0.22387513518333435 0.9925121068954468 5.145347595214844 94 80 69
0.9203656911849976 1.0514357089996338 5.435527324676514 43 55 55
0.27827972173690796 0.18737225234508514 5.431115627288818 126 132 130
0.9884662628173828 1.2344046831130981 5.367042064666748 98 134 146
1.2569351196289062 1.3045494556427002 5.50670862197876 159 170 164
0.5939567685127258 1.0384093523025513 5.318110466003418 171 138 97
0.802119255065918 1.2084734439849854 5.289462566375732 146 169 163
0.8007614612579346 1.036901831626892 5.441300868988037 95 100 96
0.2675938010215759 0.2526171803474426 5.470504283905029 53 67 80
0.9439110159873962 1.081732153892517 5.446521759033203 33 33 35
0.8716658353805542 1.0289770364761353 5.431918144226074 72 84 82
0.28011465072631836 0.8330054879188538 5.116129398345947 151 121 95
0.5538334250450134 1.0428993701934814 5.295513153076172 188 160 121
0.3278600573539734 -0.2582728862762451 5.572981357574463 137 133 134
0.6837594509124756 1.2012414932250977 5.217468738555908 86 86 124
0.35216858983039856 0.12304165959358215 5.475803375244141 92 103 99
1.1932367086410522 1.2609397172927856 5.460596084594727 101 119 129
1.4911224842071533 1.3253930807113647 5.6334967613220215 129 128 123
0.8037189841270447 1.0467380285263062 5.430647373199463 27 39 39
0.21731887757778168 0.8829811811447144 5.128037929534912 133 135 122
0.3701595962047577 0.04916321486234665 5.486480712890625 190 176 149
0.24249525368213654 0.17405936121940613 5.404782772064209 157 164 156
0.3278600573539734 -0.2582728862762451 5.572981357574463 137 133 134
0.8003122806549072 1.0615602731704712 5.4314656257629395 128 123 93
0.22709132730960846 0.09875880181789398 5.361215114593506 159 162 153
1.041224479675293 1.0734093189239502 5.498411178588867 42 47 50
0.8801800608634949 1.054140567779541 5.4340057373046875 135 126 111
1.4633492231369019 1.2991976737976074 5.586413860321045 149 151 146
0.28581979870796204 0.1057555302977562 5.403940200805664 157 156 138
0.26483628153800964 -0.05198359489440918 5.375297546386719 200 179 152
1.473684549331665 1.269014596939087 5.607016086578369 129 136 142
0.8126611113548279 1.0635724067687988 5.433410167694092 36 39 30
0.9270601272583008 1.0891188383102417 5.448653221130371 100 96 71
0.3679629862308502 0.06121402978897095 5.4887166023254395 133 140 124
0.3697334825992584 0.07220764458179474 5.500686168670654 190 187 168
0.3644752502441406 -0.012345051392912865 5.464132308959961 189 157 134
0.695152223110199 1.040996789932251 5.382074356079102 91 72 57
0.30122992396354675 0.18834373354911804 5.455877304077148 140 156 145
0.3719107508659363 0.11196667701005936 5.499773979187012 179 179 169
0.73618084192276 1.0991803407669067 5.469237327575684 67 53 52
0.6001028418540955 0.8292629718780518 5.2739386558532715 186 154 113
0.8223353028297424 1.0300788879394531 5.429609298706055 155 156 138
0.2916523516178131 -0.03419220447540283 5.4022955894470215 167 143 119
