ply
format ascii 1.0
element vertex 697
property float x
property float y
property float z
property uchar red
property uchar green
property uchar blue
end_header
0.012246009893715382 -0.053544916212558746 6.996072769165039 47 67 66
0.3649420142173767 0.053939901292324066 7.079562664031982 65 75 76
-0.06002942845225334 0.12607327103614807 7.017964839935303 145 167 165
-0.9080942869186401 1.6996153593063354 6.264337539672852 86 88 126
-0.20783473551273346 0.06452295184135437 7.043784141540527 156 168 166
0.052336011081933975 1.7148207426071167 5.980968475341797 49 53 62
0.33661553263664246 0.1508639007806778 7.098587989807129 115 145 156
-1.0270518064498901 1.281916856765747 6.667125225067139 127 135 122
-0.003018655814230442 -0.08252041041851044 7.0107526779174805 141 139 118
-0.11228900402784348 -0.031688135117292404 7.019347190856934 46 53 63
-0.035186536610126495 0.09721820056438446 7.015041828155518 157 172 169
-1.48692786693573 1.574790358543396 6.466660022735596 124 130 152
0.18493513762950897 0.0009941121097654104 7.020553112030029 160 178 166
0.017063628882169724 1.3234484195709229 6.367129325866699 18 34 68
-0.10638762265443802 1.2480663061141968 6.327043056488037 167 193 194
-1.0110892057418823 1.2452890872955322 6.6896867752075195 173 176 169
-0.1802905648946762 -0.2599657475948334 7.070755958557129 176 161 154
-1.649281620979309 1.5416860580444336 6.500349998474121 130 168 187
-0.25829970836639404 0.08499467372894287 7.072370529174805 157 179 177
0.11617880314588547 0.20340268313884735 7.046009540557861 120 143 135
-1.2664562463760376 1.4282621145248413 6.343219757080078 184 192 215
-0.022116580978035927 -0.06006329506635666 7.006649971008301 121 134 125
0.05540076643228531 -0.032627616077661514 7.008233070373535 124 137 119
-0.08924593776464462 0.8287996053695679 7.673445701599121 149 152 145
-0.12625738978385925 1.3259044885635376 6.30056619644165 68 106 145
-0.028702648356556892 -0.7119995355606079 7.622714996337891 68 77 72
-1.0962765216827393 1.4388222694396973 6.295353889465332 189 177 197
-0.13103510439395905 1.3368805646896362 6.298058986663818 25 29 66
0.21862134337425232 0.2793181538581848 7.107329845428467 125 152 171
0.04777109622955322 0.11274021863937378 7.015985012054443 62 72 74
-0.32467466592788696 -0.016873909160494804 7.084916591644287 135 147 147
0.3441483676433563 -0.12263230234384537 7.07277774810791 72 91 89
-0.04144119471311569 0.07120060175657272 7.0073723793029785 130 147 137
0.3639630079269409 -0.1417975127696991 7.070028781890869 188 208 199
0.3104301989078522 -0.2804103493690491 7.095328330993652 67 76 83
-0.16970603168010712 0.15799787640571594 7.057206153869629 92 110 110
-0.050625476986169815 -0.1528518795967102 7.0140533447265625 170 176 176
0.014547759667038918 -0.06287175416946411 7.006532669067383 78 81 90
-0.0457804799079895 1.441401481628418 6.3593268394470215 99 108 107
-1.119098424911499 1.102849006652832 7.335015773773193 144 110 75
-0.246027410030365 -0.018090449273586273 7.058300971984863 157 172 165
0.006624225992709398 -0.07214618474245071 7.007643222808838 51 59 72
-0.18387939035892487 0.2958715260028839 7.1281280517578125 69 67 70
-0.0767979770898819 -0.2880364656448364 7.047119617462158 187 199 177
-1.4501924514770508 1.6689423322677612 6.426587104797363 58 72 98
0.0016511369030922651 -0.03992089256644249 7.0045084953308105 154 171 152
-0.21888290345668793 -0.030000537633895874 7.051278591156006 164 176 174
-0.9430785179138184 1.6233770847320557 6.295064926147461 108 126 128
-0.24668551981449127 -0.42463961243629456 7.1985979080200195 208 184 174
-0.24238221347332 -0.187615767121315 7.059151649475098 169 157 145
-0.3259018361568451 1.7156398296356201 6.081457138061523 86 75 118
0.10484188050031662 0.32447150349617004 7.099338054656982 97 107 99
-0.21670019626617432 0.16737638413906097 7.0732421875 91 99 101
-0.7803351283073425 1.6618709564208984 6.215410232543945 51 43 66
-1.4223299026489258 1.5580074787139893 6.440210342407227 111 153 178
0.10591160506010056 -0.2611900568008423 7.027121067047119 201 212 206
-0.07998980581760406 -0.2205592691898346 7.029488563537598 185 196 190
0.3138123154640198 0.20715978741645813 7.101274013519287 132 160 181
0.16484591364860535 -0.10535787045955658 7.013799667358398 181 201 192
-0.21347346901893616 1.0613958835601807 6.3540167808532715 33 33 41
0.34515586495399475 0.05672915652394295 7.0962629318237305 51 56 75
-0.442875474691391 1.632504940032959 6.158109664916992 94 110 144
-1.1223353147506714 1.6239053010940552 6.348830223083496 135 158 189
0.18436777591705322 -0.37726467847824097 7.092405796051025 203 219 206
-0.2807425558567047 0.10345666110515594 7.0812201499938965 79 91 77
-0.2970583140850067 0.0062383972108364105 7.074143409729004 83 95 95
-0.003018655814230442 -0.08252041041851044 7.0107526779174805 141 139 118
0.3261333107948303 -0.09145732969045639 7.06119441986084 164 185 176
-0.025145865976810455 -0.2342771589756012 7.027481555938721 202 218 205
0.06535068899393082 0.25463801622390747 7.064791679382324 113 127 128
-0.1697094738483429 1.109334111213684 6.33160924911499 103 136 171
0.007566438522189856 -0.16318468749523163 7.003458499908447 148 144 141
0.19949093461036682 0.07371386140584946 7.026854515075684 150 172 170
-0.1830025315284729 -0.22936494648456573 7.057365894317627 162 155 147
0.21850794553756714 1.3055355548858643 7.118925094604492 141 151 127
0.4813727140426636 -0.1431201547384262 7.149375915527344 69 78 73
-1.0179462432861328 1.609184741973877 6.312257766723633 130 163 180
0.7797468900680542 -0.8553403615951538 7.509555339813232 104 107 98
-0.04973993077874184 -0.13551272451877594 7.005551815032959 79 79 87
-0.29507559537887573 -0.04292776808142662 7.078552722930908 165 175 176
-0.1514965295791626 1.329152226448059 6.293015956878662 71 106 144
-0.15350571274757385 1.1649980545043945 6.315860748291016 149 182 187
-0.13008281588554382 -0.0015630401903763413 7.0188679695129395 84 95 89
0.01636386290192604 1.3080583810806274 6.360180854797363 60 85 115
0.1524859517812729 0.745302677154541 7.524001121520996 86 83 74
-0.3148937523365021 0.2340918779373169 7.145528793334961 139 157 157
-0.025145865976810455 -0.2342771589756012 7.027481555938721 202 218 205
-0.05913476645946503 -0.2442627251148224 7.0383405685424805 163 180 164
-0.7992961406707764 1.2372571229934692 6.79179048538208 108 112 113
-0.32807648181915283 -0.29674139618873596 7.151559829711914 192 173 159
-0.0845894142985344 1.2756978273391724 6.342164039611816 75 87 125
-0.16670459508895874 -0.12964804470539093 7.0346598625183105 170 168 153
-0.7884207963943481 0.9485048651695251 7.410027027130127 28 32 33
0.3075924515724182 0.28085511922836304 7.125246047973633 115 151 175
0.12157313525676727 0.3611786365509033 7.13559627532959 83 82 87
0.20337742567062378 0.09754839539527893 7.035531520843506 156 173 163
-0.1775299459695816 1.0964196920394897 6.33472204208374 110 137 144
-0.8650369644165039 1.2494468688964844 6.723165512084961 177 182 159
0.48712071776390076 0.12964238226413727 7.1847243309021 140 156 169
0.4809590280056 -0.09210462868213654 7.136981010437012 148 163 156
-0.9634573459625244 1.29044771194458 6.6653947830200195 39 47 49
0.7622778415679932 -0.8048659563064575 7.514037609100342 155 161 123
0.5978432893753052 -0.8141517639160156 7.562776565551758 55 60 54
-0.15987397730350494 -0.43509840965270996 7.16226863861084 219 201 199
-0.23604567348957062 -0.14158689975738525 7.048408508300781 159 156 137
0.265509694814682 -0.36575543880462646 7.114401817321777 215 227 213
-0.13434699177742004 1.1857402324676514 6.321015357971191 65 72 88
0.1976652890443802 -0.09737230837345123 7.01829719543457 167 179 179
-0.9721085429191589 1.4668245315551758 6.254916667938232 41 55 104
-0.07695671170949936 0.9318894743919373 7.652889728546143 39 50 42
-0.011282707564532757 1.3492587804794312 6.3577446937561035 17 18 38
-0.30172693729400635 -0.26105010509490967 7.133235454559326 192 182 172
-0.8681272864341736 1.4053335189819336 6.381143093109131 46 52 52
-0.1728326976299286 -0.17943009734153748 7.04323673248291 167 169 155
0.3104301989078522 -0.2804103493690491 7.095328330993652 67 76 83
0.05306146666407585 -0.30449631810188293 7.048597812652588 204 220 210
-0.7603952288627625 1.4709938764572144 6.187278747558594 74 66 117
-0.7074866890907288 0.61130690574646 8.063307762145996 78 65 72
0.13078394532203674 -0.10077153146266937 6.996943950653076 145 157 153
-0.0014815300237387419 1.5948034524917603 5.982961654663086 124 150 175
0.3873036503791809 1.0641106367111206 7.77028751373291 69 68 73
0.7996666431427002 -0.8721431493759155 7.4963459968566895 190 193 172
0.043119557201862335 -0.41534772515296936 7.100691795349121 204 216 204
-0.16554993391036987 0.1761527955532074 7.068432807922363 147 173 172
-0.5889871716499329 1.651552677154541 6.15322732925415 43 52 59
-0.27550601959228516 0.23575249314308167 7.126897811889648 147 162 159
-0.04144119471311569 0.07120060175657272 7.0073723793029785 130 147 137
-1.0887398719787598 1.2849925756454468 6.655578136444092 175 179 165
-1.0417989492416382 1.4773319959640503 6.265795707702637 72 79 121
-1.2187286615371704 1.6583372354507446 6.363862037658691 94 83 126
-0.03063376620411873 1.7490613460540771 5.987027645111084 89 81 118
-0.13293980062007904 -0.0740203708410263 7.023001194000244 157 174 166
-0.16752997040748596 0.3062707781791687 7.123895645141602 49 58 53
-0.20289559662342072 1.0736836194992065 6.35331916809082 184 219 225
-0.13507796823978424 -0.09509867429733276 7.01950740814209 171 179 168
-0.06258846819400787 0.019012384116649628 7.004720687866211 134 148 133
0.30983057618141174 -0.4067276418209076 7.153260231018066 220 237 221
-0.6104838252067566 1.4572683572769165 6.174245834350586 150 174 178
-0.37476998567581177 -0.18634392321109772 7.141083717346191 178 163 158
-0.7047358751296997 1.4537582397460938 6.182036399841309 117 100 116
0.001155960257165134 -0.23685486614704132 7.023183345794678 194 209 202
0.10044211149215698 0.2765372395515442 7.064942836761475 127 149 147
-0.17188583314418793 0.320876806974411 7.129281044006348 117 110 104
0.13632038235664368 0.3248659372329712 7.104813098907471 119 138 144
0.39043867588043213 0.04826546832919121 7.0860114097595215 66 66 76
-1.0911786556243896 1.6654707193374634 6.3278889656066895 92 91 125
-0.3769380450248718 0.22584883868694305 7.1763458251953125 103 115 113
-0.21244055032730103 -0.19651879370212555 7.070731163024902 176 170 158
0.663305938243866 0.4650850296020508 7.640808582305908 72 61 77
-0.9125877022743225 1.4068105220794678 6.398387908935547 43 49 49
-1.0759241580963135 0.867652177810669 7.693221092224121 180 164 139
-0.9922347664833069 1.4045906066894531 6.416171073913574 39 41 40
-0.0315299890935421 0.8039262294769287 7.666006565093994 25 26 30
-0.022387322038412094 -0.1774854063987732 7.0177412033081055 156 159 140
-0.002369732828810811 0.14006070792675018 7.03902530670166 154 174 165
-0.050625476986169815 -0.1528518795967102 7.0140533447265625 170 176 176
-1.1212043762207031 1.2969478368759155 6.647178649902344 182 185 176
-0.05876081809401512 1.1427435874938965 6.366434097290039 50 68 116
-0.38788920640945435 0.19838403165340424 7.175220489501953 85 101 100
0.0741681307554245 0.7254355549812317 7.566049575805664 12 18 18
0.19613449275493622 1.4018135070800781 6.61097526550293 30 34 35
0.1532275676727295 -0.20279736816883087 7.023664474487305 199 210 194
0.17145568132400513 -0.2841586172580719 7.055947303771973 165 183 169
-1.1074434518814087 1.3417773246765137 6.635702610015869 17 15 18
-0.9837029576301575 1.2632479667663574 6.671242713928223 52 66 79
0.14047472178936005 -0.37068843841552734 7.080014228820801 213 226 206
-0.03862732648849487 -0.7478411793708801 7.671238899230957 23 25 20
-0.14560239017009735 -0.3489838242530823 7.09783935546875 209 224 219
0.14575110375881195 -0.17664960026741028 7.012691497802734 168 181 161
0.027716971933841705 1.4291964769363403 6.431096076965332 43 45 40
-0.29587092995643616 0.2450861632823944 7.1276421546936035 105 114 113
-0.8525264859199524 1.2833834886550903 6.697490692138672 117 122 116
0.23496009409427643 0.1582847237586975 7.05627965927124 137 170 179
0.4876156747341156 -0.2901168167591095 7.203794479370117 188 191 182
-1.0561074018478394 1.6261627674102783 6.316494464874268 132 158 185
-0.7366018891334534 1.6886266469955444 6.216711521148682 105 90 133
-0.01306716725230217 1.6231610774993896 5.955394268035889 115 135 159
-1.4448319673538208 1.4264593124389648 6.392235279083252 139 160 189
-0.1324353963136673 0.07289039343595505 7.044927597045898 158 172 172
-0.5776938199996948 -0.7494458556175232 7.951916217803955 92 81 87
-0.20639647543430328 -0.35904091596603394 7.120306015014648 206 193 187
-0.3145536482334137 -0.024051519110798836 7.084705829620361 160 170 169
-0.8681272864341736 1.4053335189819336 6.381143093109131 46 52 52
0.4978441298007965 1.313929796218872 7.728850841522217 135 137 113
-0.10419754683971405 -0.43856507539749146 7.1487298011779785 210 214 200
0.10484188050031662 0.32447150349617004 7.099338054656982 97 107 99
-0.12663771212100983 0.18346121907234192 7.049533367156982 117 129 127
-0.46422988176345825 -0.2549058198928833 7.234582424163818 185 178 160
-0.957312822341919 1.4191386699676514 6.390951156616211 157 157 183
-0.3487127721309662 -0.32090190052986145 7.187130451202393 195 191 179
0.22701260447502136 -0.4494328796863556 7.173666477203369 219 239 230
-0.9071593284606934 -0.1836441606283188 8.058562278747559 115 101 114
0.33661553263664246 0.1508639007806778 7.098587989807129 115 145 156
0.4270316958427429 0.32087910175323486 7.225340366363525 40 51 71
0.1235969290137291 -0.3807310461997986 7.091266632080078 125 139 124
-1.4412450790405273 1.6584798097610474 6.431416988372803 26 23 50
0.03613501787185669 1.4284827709197998 6.4514923095703125 39 43 44
-0.022116580978035927 -0.06006329506635666 7.006649971008301 121 134 125
-0.06362790614366531 -0.1858830451965332 7.034929275512695 149 163 150
-0.30256202816963196 -0.32591986656188965 7.161700248718262 187 177 175
-0.9105748534202576 -0.25710150599479675 8.088836669921875 97 87 95
-0.08493482321500778 1.2370706796646118 6.340112209320068 38 43 62
-0.6860097050666809 -0.8280373215675354 8.002079963684082 99 86 95
0.029025033116340637 0.2867247462272644 7.075943470001221 125 137 125
0.04105740040540695 1.7782090902328491 6.002782821655273 86 79 123
0.0012100880267098546 0.3008146286010742 7.0810370445251465 96 72 68
0.23797400295734406 0.13894543051719666 7.048803806304932 147 177 188
-0.23470145463943481 1.5023407936096191 6.020825386047363 83 72 115
0.5426546335220337 -0.1671808511018753 7.189418315887451 139 131 118
-0.5032818913459778 1.6324961185455322 6.147488594055176 97 113 146
0.4141366183757782 0.06348907947540283 7.1002421379089355 156 177 180
0.21897073090076447 0.3106856048107147 7.120659351348877 123 147 173
-0.13370805978775024 -0.02722989208996296 7.018976211547852 53 58 61
0.17872659862041473 -0.06978178769350052 7.018042087554932 176 190 177
-0.4550432562828064 1.4268821477890015 6.247885704040527 42 40 41
0.1297689974308014 1.3270238637924194 6.997574806213379 130 138 140
-0.16182418167591095 -0.3852347731590271 7.125079154968262 221 218 203
-1.334298849105835 1.5935642719268799 6.424579620361328 122 164 180
-0.4153081178665161 -0.04292457923293114 7.148725986480713 81 82 87
-1.622019648551941 1.6536093950271606 6.472405433654785 89 110 127
0.3676143288612366 0.2110472470521927 7.1291584968566895 52 63 83
-1.185286521911621 1.664031744003296 6.363569259643555 98 90 129
-0.07832282036542892 -0.15377579629421234 7.020562171936035 184 199 194
-1.6989707946777344 1.4888248443603516 6.496711730957031 158 221 255
-0.79605633020401 0.9147140979766846 7.3901495933532715 93 83 73
-0.3476993143558502 -0.22194452583789825 7.125986576080322 193 180 172
-0.5257622003555298 1.200183629989624 6.830288410186768 149 159 184
0.2618241012096405 -0.4097177982330322 7.1466064453125 131 141 133
-0.1511300951242447 1.437622308731079 6.307851314544678 61 48 58
0.006624225992709398 -0.07214618474245071 7.007643222808838 51 59 72
0.14307700097560883 0.11258730292320251 7.018748760223389 161 179 181
-1.5170834064483643 1.4643739461898804 6.440671920776367 39 50 78
-1.0151124000549316 1.40253746509552 6.418545722961426 148 162 165
0.5846996307373047 -0.17221303284168243 7.260336399078369 136 120 107
-0.37173014879226685 -0.1416223794221878 7.125413417816162 175 185 174
-1.1796395778656006 1.1958009004592896 7.0380072593688965 137 167 203
-0.387388676404953 -0.04428916797041893 7.121158599853516 167 169 166
0.24297446012496948 -0.4167993366718292 7.1527838706970215 214 227 210
-0.4163344204425812 -0.17862066626548767 7.166224479675293 144 132 120
-1.3858740329742432 1.4301027059555054 6.384041786193848 50 57 111
-0.08546514809131622 1.2375435829162598 6.343176364898682 36 40 52
0.17392709851264954 -0.5528884530067444 7.269394874572754 165 177 175
-0.9459139108657837 1.2775602340698242 6.681704044342041 47 51 63
-0.3002631962299347 -0.26131024956703186 7.132389068603516 190 183 167
-0.7802433371543884 1.2490458488464355 6.780554294586182 167 174 158
-0.01996113546192646 1.1615543365478516 6.375293254852295 54 70 95
-0.05204886198043823 0.28654780983924866 7.090287208557129 55 48 64
0.006811447907239199 0.07740657031536102 7.005895614624023 156 175 169
-0.29587092995643616 0.2450861632823944 7.1276421546936035 105 114 113
-0.5625553131103516 1.0445280075073242 7.194201469421387 140 125 102
0.327243834733963 -0.002496689558029175 7.05582857131958 125 135 137
0.17872659862041473 -0.06978178769350052 7.018042087554932 176 190 177
-1.4249480962753296 1.4305100440979004 6.399240970611572 41 43 84
0.02543661557137966 0.3039851784706116 7.094425678253174 86 71 66
-0.7586885094642639 1.4213294982910156 6.370211601257324 143 163 172
0.5496143102645874 0.6053891181945801 7.691775321960449 42 43 48
-0.9413869380950928 0.6968427300453186 8.135415077209473 106 87 89
-0.3145959675312042 1.5408316850662231 6.069253444671631 39 45 61
-1.57008695602417 1.5958547592163086 6.475645065307617 135 159 161
-0.394062340259552 0.17269662022590637 7.171536445617676 84 88 89
-0.30673494935035706 -0.1235007643699646 7.087071418762207 177 193 180
-0.2029791623353958 0.17525237798690796 7.073906898498535 140 156 143
0.45393845438957214 -0.038638871163129807 7.119664192199707 117 110 104
-0.13370805978775024 -0.02722989208996296 7.018976211547852 53 58 61
0.05292282626032829 -0.12950927019119263 6.981378555297852 125 108 100
-0.5792502164840698 1.490675926208496 6.129634857177734 65 58 110
-0.02377207577228546 0.2665194869041443 7.0682244300842285 124 136 134
-0.9672763347625732 -0.25944390892982483 8.083613395690918 99 94 101
0.09138863533735275 -0.2991369068622589 7.039781093597412 205 217 207
-0.338998407125473 -0.17454099655151367 7.113134384155273 176 184 169
-0.643592894077301 -0.6342873573303223 7.974533557891846 62 63 65
-1.095867395401001 1.195982575416565 7.005325794219971 156 179 213
-0.276932954788208 1.6182576417922974 6.077788829803467 99 116 123
0.2374119907617569 -0.24174749851226807 7.046583652496338 166 189 173
0.6574493050575256 -0.8804712295532227 7.538784503936768 202 203 189
-0.08954968303442001 1.2610697746276855 6.3571038246154785 165 194 192
0.06344597041606903 0.28906142711639404 7.0814104080200195 72 77 83
0.05264394357800484 0.002958869095891714 7.003340244293213 106 126 125
0.18349124491214752 -0.17699018120765686 7.01338529586792 180 197 189
0.2094583958387375 0.17518676817417145 7.058298587799072 155 179 181
-1.0579355955123901 1.3774597644805908 6.67794132232666 41 42 37
-0.4109433591365814 -0.1011722981929779 7.144859313964844 170 180 169
-0.2319144308567047 1.0572651624679565 6.36708402633667 51 63 105
0.40092307329177856 0.08884389698505402 7.106564521789551 119 134 137
-0.24514567852020264 0.2202935367822647 7.108642578125 155 161 157
0.18108269572257996 0.7873350977897644 7.544491291046143 10 19 16
0.29024025797843933 1.3165003061294556 7.132606029510498 169 182 173
-0.014865599572658539 1.26058828830719 6.369484901428223 179 203 205
-0.10474125295877457 0.27333083748817444 7.082977294921875 46 53 59
-0.07614915817975998 0.2899377942085266 7.093379020690918 70 59 63
-0.19552545249462128 0.41228190064430237 7.20033597946167 104 124 113
0.3530970513820648 0.0397677943110466 7.078458786010742 147 165 165
0.34515586495399475 0.05672915652394295 7.0962629318237305 51 56 75
-0.19153861701488495 1.061585783958435 6.351562976837158 50 63 97
0.26550954580307007 1.3843615055084229 6.73614501953125 155 158 165
-0.30037039518356323 -0.4301023781299591 7.251492023468018 124 112 112
0.17529511451721191 1.3253413438796997 7.011845111846924 145 155 157
0.4813727140426636 -0.1431201547384262 7.149375915527344 69 78 73
-0.3144509196281433 -0.4109306335449219 7.226650714874268 197 180 164
-1.479437232017517 1.4986008405685425 6.441800117492676 104 134 172
0.17995673418045044 -0.5256616473197937 7.226533889770508 213 229 216
0.15714941918849945 -0.25423040986061096 7.029728412628174 87 93 89
-1.1667466163635254 1.339460849761963 6.562621116638184 193 198 192
-1.1024243831634521 1.0765223503112793 7.314770698547363 162 133 101
0.45581433176994324 -0.28632113337516785 7.152779579162598 183 195 175
0.4949738681316376 0.19072528183460236 7.200501441955566 39 56 86
-0.7974182963371277 1.4466307163238525 6.215011119842529 111 95 105
-0.9951903223991394 1.3184964656829834 6.664593696594238 21 27 25
-0.9177957773208618 -0.04166339710354805 8.086653709411621 107 103 102
-0.8949397802352905 1.2736798524856567 6.683567047119141 144 155 139
-1.118445873260498 1.2423399686813354 6.696474552154541 169 171 168
0.05397823080420494 1.7343370914459229 5.958751201629639 84 83 115
-1.560584306716919 1.3560357093811035 6.844878673553467 129 120 151
-0.13142409920692444 -0.14974699914455414 7.037546634674072 169 182 175
-0.2012200653553009 0.44924789667129517 7.246221542358398 40 65 70
-0.3304140865802765 0.014398984611034393 7.099344730377197 52 66 67
0.3991889953613281 0.1810249388217926 7.1315741539001465 97 113 126
-0.04138195887207985 -0.36162036657333374 7.086719512939453 219 236 228
-0.27500882744789124 0.9700506329536438 7.3656182289123535 112 122 114
0.26554250717163086 0.39339932799339294 7.180446147918701 82 102 109
0.10877976566553116 1.4050368070602417 6.555559158325195 163 173 165
0.05524777993559837 0.19633185863494873 7.041819095611572 132 149 143
-0.2574146091938019 -0.3941291272640228 7.177531719207764 197 176 171
-0.09354835003614426 1.2122243642807007 6.341634750366211 166 190 200
-0.024513546377420425 -0.20748640596866608 7.0213751792907715 204 210 198
-0.09284738451242447 1.069799542427063 6.375658988952637 66 102 124
-0.9034382700920105 1.4684600830078125 6.246543884277344 74 63 105
0.44214579463005066 1.0716946125030518 7.735176086425781 82 81 77
-0.20526905357837677 1.459404706954956 6.215284824371338 132 119 126
-0.7810694575309753 0.8989236950874329 7.4003119468688965 83 89 79
0.3517749011516571 0.33868783712387085 7.190633296966553 48 65 75
0.2605893611907959 -0.3436696529388428 7.114882946014404 190 206 179
-0.2582911550998688 0.05199999734759331 7.062158107757568 108 128 126
-0.2594987452030182 -0.15553860366344452 7.079109191894531 149 140 131
0.23855039477348328 0.3612928092479706 7.160144329071045 41 54 71
-0.05988076701760292 0.23062868416309357 7.05620813369751 141 161 162
-0.11468233168125153 1.1006841659545898 6.343573093414307 112 136 170
-0.03881162405014038 -0.12687565386295319 7.007636547088623 165 167 153
-0.14637915790081024 -0.18465235829353333 7.030732154846191 188 189 173
-1.1699298620224 1.3734923601150513 6.542625904083252 46 49 54
0.4788588285446167 0.05733881890773773 7.151794910430908 46 54 77
0.1976652890443802 -0.09737230837345123 7.01829719543457 167 179 179
0.16824470460414886 0.14745216071605682 7.035721778869629 132 154 165
-0.29507559537887573 -0.04292776808142662 7.078552722930908 165 175 176
0.49234282970428467 -0.3166896104812622 7.251603126525879 183 185 171
0.16904215514659882 -0.449768602848053 7.150684356689453 230 247 231
0.6006298065185547 -0.15927961468696594 7.277040004730225 58 63 66
-0.9197543263435364 0.9281970262527466 7.35819673538208 151 132 100
-0.4438443183898926 -0.2785130441188812 7.232019424438477 89 82 90
-0.14874643087387085 1.0613348484039307 6.360904693603516 27 45 91
-0.1465459018945694 1.3552443981170654 6.284140586853027 17 28 46
0.06159364804625511 -0.5087746977806091 7.196251392364502 226 243 235
-0.5791547894477844 1.6026272773742676 6.160882472991943 86 104 126
-0.04493309557437897 1.004779577255249 7.611527442932129 45 56 48
-0.7439602613449097 0.575882613658905 8.076191902160645 105 88 98
0.12480200827121735 0.3022868037223816 7.087030410766602 130 153 167
-0.7686225175857544 1.4541512727737427 6.220099925994873 119 98 103
-0.9425863027572632 0.9248313307762146 7.357527256011963 153 131 94
0.23521360754966736 0.00658316258341074 7.032029628753662 157 182 176
-0.030842026695609093 1.4127541780471802 6.393158435821533 8 7 12
0.14812089502811432 0.16120655834674835 7.042519569396973 129 147 151
-0.9431662559509277 -0.33853790163993835 8.084297180175781 67 65 70
-0.20232966542243958 1.1446205377578735 6.304477691650391 55 79 123
0.011434804648160934 1.6680971384048462 6.001399040222168 112 143 164
0.5051853656768799 1.2506800889968872 7.690993309020996 166 162 135
0.46624499559402466 0.30881670117378235 7.265248775482178 38 47 76
-0.19558846950531006 -0.3848709464073181 7.137423038482666 208 201 191
8.91962627065368e-05 0.19412915408611298 7.029419898986816 108 126 110
-0.010819203220307827 -0.22436052560806274 7.026900291442871 67 75 77
-0.2581222951412201 -0.01867145113646984 7.063323497772217 143 156 147
0.6053896546363831 -0.7706499695777893 7.588718891143799 81 71 79
-1.6338393688201904 1.6399385929107666 6.486859321594238 148 158 150
-0.38842201232910156 -0.21761487424373627 7.166219711303711 173 151 137
-1.029858112335205 1.395538568496704 6.427939414978027 67 65 89
-0.4529300332069397 1.7011051177978516 6.11084508895874 86 78 101
0.4956982135772705 -0.08419337868690491 7.143007278442383 72 86 87
-0.338998407125473 -0.17454099655151367 7.113134384155273 176 184 169
0.041241150349378586 -0.5221539735794067 7.22598123550415 224 235 227
-0.9887986183166504 1.3903852701187134 6.4196672439575195 151 163 175
-0.28222498297691345 1.448615312576294 6.284470081329346 87 85 98
0.23648983240127563 -0.07711848616600037 7.020112991333008 171 195 181
-0.10138370841741562 -0.460536926984787 7.17727518081665 110 105 111
-0.1887982338666916 0.47216787934303284 7.261631965637207 98 110 98
-0.4713135063648224 0.21496166288852692 7.259356498718262 91 106 113
-0.9094504714012146 1.2778205871582031 6.6764373779296875 182 183 175
-1.4674408435821533 1.412543535232544 6.385493755340576 95 102 121
0.4943884015083313 -0.15634851157665253 7.144786357879639 171 177 167
-0.43526744842529297 -0.12419600039720535 7.168515682220459 177 189 185
-0.8650369644165039 1.2494468688964844 6.723165512084961 177 182 159
-0.27909961342811584 1.4155045747756958 6.3071699142456055 13 19 33
-0.39848682284355164 0.21377383172512054 7.185667514801025 149 164 159
-0.2902819514274597 1.474385142326355 6.051708698272705 102 87 110
-0.003744192188605666 -0.05073509365320206 7.025942325592041 62 76 76
-0.023375218734145164 -0.45535144209861755 7.14675235748291 225 242 234
-1.647773265838623 1.604472279548645 6.519102096557617 118 146 170
-0.9295446276664734 1.4412730932235718 6.260581016540527 119 105 128
-1.210662841796875 1.3817452192306519 6.558488845825195 61 58 79
0.1501334011554718 -0.5414521098136902 7.257915496826172 223 240 224
-0.8948974013328552 -0.7147546410560608 8.049895286560059 107 97 105
0.22934147715568542 1.3788858652114868 6.660173416137695 197 213 210
-0.030833370983600616 1.4129372835159302 6.393136978149414 8 7 12
-1.2506064176559448 1.4468231201171875 6.34185791015625 46 48 99
-0.1171829104423523 1.5068860054016113 5.967126369476318 87 69 121
-0.7158666849136353 1.2935763597488403 6.80824089050293 16 21 25
-0.9693472385406494 1.1950814723968506 7.058190822601318 227 240 231
-0.7776190638542175 0.5688089728355408 8.077340126037598 70 59 73
-1.1182942390441895 1.430410623550415 6.315156936645508 122 108 131
0.271148681640625 -0.2616431415081024 7.0629377365112305 205 217 193
0.4177749454975128 0.01695302687585354 7.096800804138184 81 95 108
-0.5913664698600769 1.4538540840148926 6.1779985427856445 156 163 171
0.19229274988174438 0.38259047269821167 7.155933380126953 88 89 83
0.25634172558784485 0.7580283880233765 7.508266925811768 78 88 89
-0.004259261768311262 -0.15957871079444885 7.013479232788086 62 62 52
-0.11405453830957413 0.3143598735332489 7.109274864196777 113 113 103
0.21423383057117462 0.49068477749824524 7.275758743286133 62 59 78
-0.32705971598625183 0.35579970479011536 7.217419147491455 125 136 119
-1.7024915218353271 1.628562092781067 6.5415520668029785 150 160 170
-0.8333811163902283 1.2463951110839844 6.736020565032959 174 178 155
0.2861228883266449 0.028163967654109 7.033058166503906 127 145 149
-1.6001657247543335 1.667090654373169 6.467092514038086 77 112 140
-0.022446269169449806 1.6414796113967896 6.003687381744385 110 144 172
-0.7989276647567749 1.320438027381897 6.716956615447998 29 31 28
-1.5922846794128418 1.4856144189834595 6.487752914428711 55 58 93
-0.20768754184246063 -0.23587626218795776 7.074351787567139 152 132 131
0.4131295680999756 0.30570268630981445 7.2154765129089355 94 115 146
-0.8884706497192383 1.4854859113693237 6.22788143157959 82 77 135
-0.22268632054328918 0.14641156792640686 7.082799911499023 103 120 112
0.6684130430221558 0.7539479732513428 7.666057586669922 88 68 79
-0.08877239376306534 1.3657475709915161 6.380892276763916 16 21 40
-1.5060824155807495 1.5142138004302979 6.5090107917785645 95 123 147
-0.8882779479026794 1.2671202421188354 6.700564384460449 41 49 52
-0.11877206712961197 0.7488285303115845 7.632370471954346 74 76 71
0.2787059545516968 -0.39992332458496094 7.14253568649292 236 244 233
-0.737619161605835 1.2491828203201294 6.814779281616211 167 171 156
-0.7736199498176575 1.2374167442321777 6.787574768066406 120 123 114
0.4998190104961395 0.3193737268447876 7.286675453186035 43 44 74
0.48890039324760437 -0.7416843771934509 7.629659652709961 125 111 110
-1.1224470138549805 1.2496930360794067 6.671936511993408 173 186 177
-0.06734327971935272 1.259494662284851 6.3455424308776855 164 191 198
0.5450466871261597 -0.13904668390750885 7.169363975524902 148 142 118
-0.7916390895843506 0.8696091771125793 7.367595672607422 63 70 62
-0.2766163945198059 -0.18235959112644196 7.072399616241455 165 154 148
-0.2709818482398987 0.4477233588695526 7.267936706542969 112 122 111
0.24820807576179504 -0.14069795608520508 7.014681816101074 190 206 196
-0.12241044640541077 -0.5216841697692871 7.242279052734375 138 149 135
-1.165848731994629 1.3507171869277954 6.557679176330566 72 76 77
-1.076297640800476 0.8750137686729431 7.425618648529053 206 187 154
0.055037762969732285 1.4323722124099731 6.463914394378662 34 34 42
-0.3954170346260071 0.01531608123332262 7.135488510131836 130 128 116
0.5939225554466248 -0.003055806504562497 7.245083808898926 134 149 152
-0.7481147050857544 1.257939338684082 6.794400691986084 175 186 172
0.006970779038965702 -0.1942937970161438 7.0147929191589355 188 191 184
0.38586315512657166 0.3535834550857544 7.229929447174072 85 115 141
-0.2772229015827179 0.328291654586792 7.188258647918701 74 89 82
0.7320417761802673 -0.26175418496131897 7.565508842468262 84 74 73
-0.6112225651741028 1.467380404472351 6.13761568069458 141 140 180
0.04566330462694168 0.27343446016311646 7.076663970947266 55 75 74
0.3171265125274658 -0.3497105836868286 7.129324913024902 184 205 198
-0.2134687602519989 1.437577724456787 6.299546241760254 51 51 59
-0.14045526087284088 -0.5372720956802368 7.273191452026367 218 235 225
-0.5916756391525269 1.5015825033187866 6.124652862548828 71 69 108
0.24652908742427826 1.0058709383010864 7.800503730773926 73 68 74
0.529611349105835 -0.10823158919811249 7.175990104675293 129 137 124
0.5120811462402344 0.17333465814590454 7.187898635864258 124 144 171
0.4411139488220215 0.053041014820337296 7.124109745025635 153 172 168
-0.12348635494709015 1.0609891414642334 6.365494728088379 36 44 65
0.1897181123495102 0.3646245300769806 7.137932300567627 39 55 71
-0.44632408022880554 1.4557278156280518 6.1879096031188965 127 123 146
-0.9951903223991394 1.3184964656829834 6.664593696594238 21 27 25
0.24086734652519226 -0.3942728340625763 7.125675678253174 221 225 210
-0.737887978553772 0.5437726974487305 8.058671951293945 71 66 88
0.15405714511871338 -0.4602109491825104 7.155708312988281 193 216 210
0.6006298065185547 -0.15927961468696594 7.277040004730225 58 63 66
0.25272831320762634 0.15529733896255493 7.056195259094238 116 147 152
-0.06244390830397606 -0.37734079360961914 7.0945916175842285 194 213 207
0.017478255555033684 1.4392223358154297 6.389049530029297 106 110 119
0.035778578370809555 -0.12557794153690338 7.0134148597717285 122 108 95
0.15607337653636932 0.6886538863182068 7.487400531768799 47 51 62
-0.047358933836221695 1.1959662437438965 6.364275932312012 37 43 65
-0.5522024035453796 -0.11911759525537491 7.291506290435791 83 81 95
-1.637294054031372 1.4968804121017456 6.492407321929932 106 131 161
-0.4071187674999237 -0.12474086880683899 7.134990692138672 163 177 162
-1.628238558769226 1.582192301750183 6.493912220001221 70 96 121
-0.7238692045211792 -0.5385007262229919 8.015048027038574 77 72 78
0.23481827974319458 0.425606906414032 7.2207112312316895 43 57 70
-0.3558303117752075 0.07473158091306686 7.132190704345703 109 97 83
-0.3518338203430176 0.19153407216072083 7.1593546867370605 55 64 73
-0.07279352843761444 1.1581865549087524 6.354191303253174 157 182 187
-1.0953617095947266 1.4114265441894531 6.42558479309082 166 166 176
-0.6239917278289795 1.412122368812561 6.345752239227295 123 143 144
0.18123024702072144 1.4203498363494873 6.602898120880127 73 74 78
-0.30448952317237854 1.5523138046264648 6.057397842407227 101 125 161
0.6649799942970276 -0.5757719278335571 7.588433265686035 119 107 111
-0.11059035360813141 1.6318916082382202 6.023002624511719 113 148 178
-0.23291395604610443 1.4590874910354614 6.213008403778076 139 121 133
-0.32480236887931824 0.9542129039764404 7.398468971252441 153 164 160
-0.8848176002502441 1.3231300115585327 6.679314613342285 23 23 21
-1.041072964668274 1.410601019859314 6.42046594619751 167 164 183
-0.7170707583427429 1.2248613834381104 6.8878679275512695 160 166 154
0.10044211149215698 0.2765372395515442 7.064942836761475 127 149 147
-0.20489180088043213 0.10092801600694656 7.05954122543335 153 165 165
-0.6033778786659241 1.4822273254394531 6.124660968780518 53 51 91
0.00495525449514389 1.4276220798492432 6.39763879776001 52 52 54
0.4752502143383026 0.03356604278087616 7.1547722816467285 55 69 70
0.38325798511505127 0.0689605250954628 7.0776824951171875 151 171 172
0.2646632492542267 -0.1744188517332077 7.036926746368408 168 180 156
-0.0057097068056464195 0.42962905764579773 7.162675380706787 51 42 45
-0.8276463747024536 1.2543295621871948 6.725306510925293 88 95 103
-1.047658085823059 1.2085789442062378 6.979948043823242 233 245 243
0.007373733911663294 0.09864913672208786 7.018146514892578 124 144 135
0.6628240346908569 -0.7741888165473938 7.551839351654053 112 91 86
-0.43688008189201355 0.14222882688045502 7.194079399108887 78 84 80
-0.8807540535926819 0.2638084292411804 8.096590995788574 80 78 83
-0.16921977698802948 -0.3251085579395294 7.0904669761657715 86 97 99
-0.057278823107481 -0.11065039038658142 7.005562782287598 90 91 83
-0.13910794258117676 -0.11961708217859268 7.022215843200684 161 174 167
0.18494835495948792 1.4410462379455566 6.482363700866699 153 127 140
-0.15941950678825378 0.4530855119228363 7.221438407897949 97 103 91
-0.01306716725230217 1.6231610774993896 5.955394268035889 115 135 159
0.04142698645591736 -0.16555678844451904 7.002935886383057 143 120 106
0.44343721866607666 -0.20652687549591064 7.138020992279053 154 170 157
-0.17761383950710297 -0.201764315366745 7.059384346008301 174 164 165
-1.4674408435821533 1.412543535232544 6.385493755340576 95 102 121
-0.22268632054328918 0.14641156792640686 7.082799911499023 103 120 112
0.2178633213043213 -0.49107909202575684 7.21063756942749 153 172 170
0.2259139120578766 0.34277403354644775 7.142938613891602 114 141 150
-0.1924879103899002 -0.4230085015296936 7.166265487670898 211 185 170
-0.5875664949417114 1.4755489826202393 6.124159812927246 133 128 168
-0.1581719070672989 0.21346256136894226 7.076221466064453 118 128 130
0.17392709851264954 -0.5528884530067444 7.269394874572754 165 177 175
-0.41315051913261414 0.14633728563785553 7.17169713973999 74 77 66
-0.10009411722421646 -0.5157256722450256 7.22323751449585 230 247 237
0.7615560293197632 -0.009895448572933674 7.573137283325195 93 80 87
-0.16639861464500427 -0.535464882850647 7.285000801086426 223 235 221
-1.068607211112976 1.3968735933303833 6.45065450668335 65 54 62
0.38470107316970825 1.1591516733169556 7.757767200469971 73 60 69
-0.2697692811489105 1.366698980331421 6.257980823516846 22 27 56
-0.4895194172859192 1.4171278476715088 6.437531471252441 102 96 122
0.08403760194778442 -0.18287290632724762 7.006740570068359 171 179 166
-0.22114580869674683 0.18414238095283508 7.082921028137207 145 168 162
-0.01803787425160408 0.05476142466068268 7.0166425704956055 132 149 133
-0.31386470794677734 -0.7903914451599121 7.8724870681762695 104 98 100
-0.7497811317443848 1.5992631912231445 6.22196626663208 117 124 153
-0.3383478820323944 -0.14641740918159485 7.108921051025391 196 205 184
-0.6334052085876465 -0.6056628823280334 7.964599609375 121 110 116
-0.08197671175003052 0.03146389126777649 7.006710529327393 125 142 134
-0.2431967705488205 1.0651544332504272 6.368086814880371 135 160 182
-0.7820874452590942 0.9296484589576721 7.394321441650391 76 78 73
-0.6989209055900574 0.8829525113105774 7.332798004150391 129 140 124
0.6010483503341675 -0.6003953218460083 7.6024932861328125 121 105 105
0.6039933562278748 -0.580020010471344 7.589697360992432 86 76 77
0.6599868535995483 -0.5884270668029785 7.581408977508545 104 92 102
-0.0483495332300663 0.3872627019882202 7.13568115234375 76 60 63
-1.1796395778656006 1.1958009004592896 7.0380072593688965 137 167 203
-0.2715630531311035 1.2036412954330444 6.290436744689941 107 137 187
0.1670253425836563 1.4273316860198975 6.571544647216797 142 156 159
-0.3071192800998688 -0.22333800792694092 7.106748104095459 180 168 156
-0.5522024035453796 -0.11911759525537491 7.291506290435791 83 81 95
-0.022571489214897156 0.08681535720825195 7.010412693023682 137 155 133
-0.16321194171905518 -0.10183703154325485 7.042871952056885 174 180 176
-0.4602973163127899 -0.1930397003889084 7.211552143096924 173 156 140
0.3348696231842041 1.4688109159469604 6.555309295654297 63 66 75
-0.8618764281272888 -0.7399062514305115 8.046843528747559 63 60 67
-0.013180620037019253 0.4082180857658386 7.1415581703186035 48 48 38
-0.8926450610160828 1.2936615943908691 6.682741165161133 93 98 94
-0.5626761317253113 1.4618582725524902 6.1454362869262695 132 122 156
-0.16226178407669067 -0.5198625922203064 7.247859477996826 126 146 145
-0.7624467611312866 0.5229560732841492 8.09794807434082 99 88 102
0.19214335083961487 -0.7995270490646362 7.701796531677246 125 106 108
-0.03861812874674797 1.6151485443115234 6.007833957672119 93 108 131
-0.4005790650844574 -0.1758403480052948 7.149334907531738 173 166 158
0.15016169846057892 1.4244706630706787 6.5570268630981445 152 171 178
-0.03414778783917427 0.42548179626464844 7.142091751098633 92 76 76
-0.5791547894477844 1.6026272773742676 6.160882472991943 86 104 126
-0.12661974132061005 0.7263297438621521 7.67860221862793 58 66 68
-1.6455241441726685 1.5706958770751953 6.500524520874023 131 162 182
0.01871480792760849 -0.09631550312042236 6.995948791503906 144 137 118
-1.1904873847961426 1.3928771018981934 6.529575824737549 161 178 188
0.057516202330589294 0.5783705115318298 7.313315391540527 35 35 37
0.5015069246292114 -0.09736088663339615 7.144880294799805 141 155 140
0.08386718481779099 0.06779880821704865 7.011444568634033 107 128 113
0.2544998824596405 -0.01352357491850853 7.016665458679199 179 197 185
-1.0755364894866943 1.266459345817566 6.671208381652832 95 97 92
-1.6500885486602783 1.3808587789535522 6.46809720993042 141 150 147
-1.0265960693359375 1.665781021118164 6.297089099884033 91 86 108
-0.27309513092041016 -0.5007258653640747 7.300730228424072 129 129 127
-0.8315888047218323 -0.7198680639266968 8.02283763885498 108 102 102
-0.5840154886245728 1.4367157220840454 6.184198379516602 45 38 45
0.13206425309181213 0.014303550124168396 7.000988006591797 127 140 131
0.2674192190170288 1.4563499689102173 6.507530689239502 45 37 58
-0.4969181418418884 0.2209787666797638 7.285372257232666 93 106 112
-0.8689756989479065 0.3312527537345886 8.092391967773438 114 97 113
0.295760840177536 0.14447471499443054 7.075873851776123 149 178 192
-0.7989276647567749 1.320438027381897 6.716956615447998 29 31 28
0.06034006550908089 1.4478857517242432 6.399438381195068 91 78 95
-0.8262273669242859 1.408233880996704 6.386011123657227 65 64 72
-0.6811653971672058 -0.6687194108963013 7.965478897094727 87 77 78
0.49776187539100647 -0.1304769665002823 7.142379283905029 165 177 153
-1.0404630899429321 1.2659039497375488 6.676911354064941 182 189 182
-0.23495067656040192 1.4505219459533691 6.254594802856445 79 71 86
-0.205011248588562 1.484508991241455 6.026784420013428 109 102 118
-0.03671498969197273 0.2601756453514099 7.065600395202637 68 92 94
-0.7065571546554565 1.5493497848510742 6.204464912414551 74 86 86
0.45059746503829956 -0.3758503198623657 7.239358425140381 211 219 206
-0.2544131875038147 1.4334512948989868 6.270995140075684 36 36 34
0.15981949865818024 -0.3547602891921997 7.067847728729248 211 231 220
0.09956041723489761 -0.48744136095046997 7.168402671813965 226 239 229
-0.7667890191078186 -0.5140254497528076 8.007118225097656 118 106 118
0.21616604924201965 1.4261058568954468 6.601571559906006 146 152 166
-0.673212468624115 1.4776372909545898 6.156074047088623 40 53 97
-0.026659909635782242 0.20966657996177673 7.034365653991699 115 135 134
-0.5491018295288086 -0.7331919074058533 7.9225311279296875 119 104 107
-0.134590744972229 0.25276148319244385 7.090856075286865 121 141 140
-0.4165914058685303 -0.2528979480266571 7.1990509033203125 194 181 165
-0.737619161605835 1.2491828203201294 6.814779281616211 167 171 156
0.11397432535886765 0.03324338048696518 6.997406005859375 128 149 144
0.09387580305337906 0.173564612865448 7.038068771362305 111 137 134
-0.21160732209682465 1.017714023590088 7.310246467590332 84 99 96
-0.6889042258262634 1.4677042961120605 6.174826622009277 189 182 189
-0.7582402229309082 -0.41533157229423523 8.0100679397583 80 69 83
0.43533045053482056 1.3171606063842773 7.751502513885498 60 56 73
-0.10092692822217941 -0.20560023188591003 7.032032489776611 112 117 97
-0.047730330377817154 0.38702255487442017 7.131458282470703 76 60 63
0.2178633213043213 -0.49107909202575684 7.21063756942749 153 172 170
0.03862673416733742 -0.300752192735672 7.043472766876221 207 218 210
-0.4125017523765564 0.35180363059043884 7.313804626464844 118 139 140
-0.38166406750679016 -0.23551368713378906 7.155864715576172 177 147 139
-0.1725507527589798 0.44628775119781494 7.239110946655273 66 83 77
-0.1266501545906067 0.8803583383560181 7.716115474700928 24 35 29
-0.05745263025164604 1.6393542289733887 6.013478755950928 118 151 186
-0.5191157460212708 0.04903349652886391 7.24341344833374 63 55 78
0.23990976810455322 -0.3704361915588379 7.110931396484375 212 230 218
-0.23068144917488098 1.0344767570495605 6.3596673011779785 46 49 90
-0.1705183982849121 1.4855632781982422 6.059561252593994 123 124 142
-0.17365413904190063 0.7401748299598694 7.689325332641602 60 62 59
0.5789656043052673 1.0577261447906494 7.691188812255859 89 78 86
-0.8182846307754517 0.8524898290634155 7.380105018615723 82 87 80
0.07179705798625946 -0.5507951378822327 7.239417552947998 231 245 228
-0.8753607869148254 -0.14159740507602692 8.074259757995605 112 108 109
-1.497359037399292 1.6430100202560425 6.450399398803711 67 77 69
-1.4398486614227295 1.4439573287963867 6.398197174072266 19 34 73
-0.15885676443576813 0.37960460782051086 7.169107437133789 50 59 56
-0.5639868974685669 1.6287837028503418 6.134946823120117 42 63 90
-1.2381311655044556 1.3616986274719238 6.596922397613525 150 156 156
-0.22509077191352844 1.0719345808029175 6.360450744628906 207 236 254
-0.03671498969197273 0.2601756453514099 7.065600395202637 68 92 94
0.1800810843706131 0.18230561912059784 7.048976421356201 117 145 149
-1.6064916849136353 1.4176512956619263 6.436291694641113 80 105 127
-0.2873554229736328 1.3689826726913452 6.279465675354004 24 28 55
-0.7742041349411011 0.8473907113075256 7.362514019012451 153 152 132
-0.6515905261039734 1.7113003730773926 6.2023515701293945 91 86 116
0.38486745953559875 -0.6538102626800537 7.663111686706543 88 78 89
-0.024374958127737045 -0.5122535228729248 7.202902793884277 227 243 233
-0.1506556272506714 0.459809809923172 7.224557876586914 50 61 55
-0.1761164665222168 0.11800599098205566 7.049140453338623 153 171 171
0.1594497263431549 -0.5735992193222046 7.287857532501221 154 165 151
0.21896380186080933 -0.13390251994132996 7.040950298309326 189 204 197
0.5042896270751953 0.20925500988960266 7.203278541564941 121 153 176
-0.3641672730445862 -0.3671697974205017 7.22865629196167 210 200 190
0.30546459555625916 -0.49324488639831543 7.247818946838379 203 220 202
-0.2594750225543976 1.719829797744751 6.056338310241699 78 81 116
-0.6354807615280151 1.430013656616211 6.335727691650391 152 167 188
-1.6455241441726685 1.5706958770751953 6.500524520874023 131 162 182
-0.4222840964794159 0.02112732082605362 7.150640487670898 117 113 110
0.0829615667462349 1.4076778888702393 6.522276401519775 148 155 148
-0.39893218874931335 -0.7189134359359741 7.9056315422058105 81 82 87
0.6448103189468384 1.3259137868881226 7.677366733551025 168 159 130
-0.9962037801742554 1.2056087255477905 6.976837635040283 230 242 238
-0.06211071088910103 1.6490099430084229 6.020190715789795 110 128 148
-0.11025785654783249 1.42781400680542 6.308597564697266 111 100 108
0.01491939090192318 -0.436640202999115 7.113012790679932 202 213 205
-1.5709228515625 1.3978980779647827 6.521350860595703 129 140 132
0.293590784072876 1.2967445850372314 7.162258148193359 187 204 194
0.16334222257137299 -0.8190573453903198 7.723479747772217 120 104 107
0.2427537590265274 1.623563289642334 6.232452869415283 191 195 204
-0.258972704410553 1.3408581018447876 6.253178596496582 25 28 47
-0.2416282594203949 -0.39145299792289734 7.163276195526123 212 211 216
-0.4298153221607208 0.750388503074646 7.937914848327637 93 74 80
0.09885090589523315 -0.596406102180481 7.333495616912842 176 176 168
-0.4212891161441803 0.1671259105205536 7.182709693908691 135 150 155
-1.129554033279419 1.6683907508850098 6.358432769775391 98 94 111
0.4155871570110321 -0.6695888638496399 7.648508548736572 118 112 114
-0.8374709486961365 1.270581841468811 6.720826148986816 37 38 59
-0.8023794293403625 -0.7033695578575134 8.035540580749512 75 70 74
-0.6945726275444031 1.2303091287612915 6.923061847686768 72 90 102
-0.15521669387817383 -0.1149878054857254 7.0338263511657715 87 88 90
0.03735166788101196 1.3604539632797241 6.4137701988220215 58 63 92
0.23954978585243225 0.44723671674728394 7.228096961975098 31 37 49
-0.3213638663291931 -0.20924724638462067 7.117273807525635 108 103 97
-0.35867825150489807 0.3510107398033142 7.266688346862793 82 100 104
0.2785848081111908 1.0977866649627686 7.751334190368652 65 64 69
0.8007031083106995 -0.755480170249939 7.529256343841553 135 138 117
-0.3158389925956726 -0.46085724234580994 7.2819743156433105 209 190 175
0.39072200655937195 1.1769933700561523 7.7409772872924805 63 45 45
-0.21175579726696014 1.1595444679260254 6.293876647949219 60 96 132
-0.17591454088687897 1.0319252014160156 6.344735145568848 110 148 195
-1.0419175624847412 1.3152867555618286 6.658405303955078 22 23 25
