ply
format ascii 1.0
element vertex 754
property float x
property float y
property float z
property uchar red
property uchar green
property uchar blue
end_header
-0.030893433839082718 1.7680660486221313 6.049422740936279 0 0 0
-0.13433478772640228 -0.07417228817939758 7.0960893630981445 0 0 0
-0.16936267912387848 0.3102276027202606 7.201752185821533 0 0 0
-0.20498499274253845 1.0856863260269165 6.419642925262451 0 0 0
-0.06325121968984604 0.019805165007710457 7.07792329788208 0 0 0
0.3129951059818268 -0.4105404019355774 7.226600170135498 0 0 0
-0.6169672608375549 1.473781704902649 6.24034309387207 0 0 0
-0.37874239683151245 -0.18761633336544037 7.216445446014404 0 0 0
-0.7122750282287598 1.470354676246643 6.248627662658691 0 0 0
-0.11160343140363693 0.042426083236932755 7.093106269836426 0 0 0
0.6899563074111938 -0.5827236771583557 7.668516159057617 0 0 0
0.0011529000476002693 -0.2387259304523468 7.095041275024414 0 0 0
0.2715381383895874 -0.31280529499053955 7.19621467590332 0 0 0
0.1015215516090393 0.2800281047821045 7.140961647033691 0 0 0
0.13780054450035095 0.32888802886009216 7.182024955749512 0 0 0
-0.5939123034477234 -4.088856220245361 16.460060119628906 0 0 0
0.17143602669239044 0.04093877226114273 7.085330009460449 0 0 0
0.3945605158805847 0.04915020614862442 7.160913467407227 0 0 0
-1.1036150455474854 1.6855218410491943 6.40036678314209 0 0 0
-0.3810861110687256 0.22901371121406555 7.255233287811279 0 0 0
0.20009371638298035 1.3323968648910522 7.12949275970459 0 0 0
-0.21466374397277832 -0.19792114198207855 7.1441850662231445 0 0 0
-0.9227427840232849 1.423498272895813 6.4699273109436035 0 0 0
-1.089565396308899 0.8794489502906799 7.790855884552002 0 0 0
-1.0033605098724365 1.4213858842849731 6.4884257316589355 0 0 0
-0.03190852701663971 0.8141824007034302 7.759793281555176 0 0 0
-0.022630412131547928 -0.17874306440353394 7.089885711669922 0 0 0
-0.0023999118711799383 0.14210768043994904 7.113683700561523 0 0 0
-0.05116187036037445 -0.15384559333324432 7.08634614944458 0 0 0
-1.1341476440429688 1.3129547834396362 6.724167823791504 0 0 0
-0.3921482563018799 0.20124728977680206 7.253915309906006 0 0 0
-1.013643503189087 0.5103768110275269 8.257864952087402 0 0 0
0.07506264001131058 0.7345395088195801 7.656760215759277 0 0 0
0.19833409786224365 1.4179209470748901 6.684078216552734 0 0 0
0.15478457510471344 -0.2043924778699875 7.095632553100586 0 0 0
0.17319387197494507 -0.2866024076938629 7.128063201904297 0 0 0
-1.1202467679977417 1.3583191633224487 6.712678909301758 0 0 0
-0.9949663281440735 1.2787073850631714 6.747898578643799 0 0 0
-1.1082241535186768 1.493200421333313 6.349822521209717 0 0 0
-0.14711640775203705 -0.3519715666770935 7.170742034912109 0 0 0
0.02805342897772789 1.445358157157898 6.50070858001709 0 0 0
-0.8622664213180542 1.2989989519119263 6.774303913116455 0 0 0
0.23745255172252655 0.16042357683181763 7.131274223327637 0 0 0
0.4927033483982086 -0.29288071393966675 7.27907133102417 0 0 0
-1.068055510520935 1.645629644393921 6.388320446014404 0 0 0
0.16113831102848053 0.07741695642471313 7.106652736663818 0 0 0
-0.22377336025238037 1.368930697441101 6.34598970413208 0 0 0
-1.3439726829528809 1.6576792001724243 6.471919536590576 0 0 0
-0.7446928024291992 1.708215594291687 6.285503387451172 0 0 0
-0.013146954588592052 1.64059317111969 6.016456604003906 0 0 0
-0.5842633247375488 -0.7573860287666321 8.042012214660645 0 0 0
-0.20854324102401733 -0.36212337017059326 7.193713665008545 0 0 0
-0.8777338862419128 1.421913981437683 6.452117443084717 0 0 0
0.5042302012443542 1.331007480621338 7.827846050262451 0 0 0
-0.10528604686260223 -0.4425051212310791 7.2220659255981445 0 0 0
0.10597986727952957 0.32850101590156555 7.176435947418213 0 0 0
0.42844292521476746 -0.31254851818084717 7.263300895690918 0 0 0
-0.46919769048690796 -0.25691404938697815 7.311707019805908 0 0 0
-0.967997133731842 1.4360212087631226 6.46260929107666 0 0 0
-0.3523920774459839 -0.32360023260116577 7.262532711029053 0 0 0
0.22932499647140503 -0.4536499083042145 7.247180461883545 0 0 0
0.2705856263637543 -0.030097991228103638 7.112410545349121 0 0 0
-0.918201208114624 -0.18519802391529083 8.156515121459961 0 0 0
-0.07691432535648346 -0.8149649500846863 9.545073509216309 0 0 0
0.4454526901245117 0.1909514218568802 7.23227071762085 0 0 0
-1.4583053588867188 1.679234266281128 6.507834434509277 0 0 0
0.03656301274895668 1.4446736574172974 6.521522521972656 0 0 0
-0.022356096655130386 -0.06011265143752098 7.0793232917785645 0 0 0
-0.30573758482933044 -0.32866591215133667 7.236405372619629 0 0 0
0.1678706556558609 -0.4051128327846527 7.1762375831604 0 0 0
0.09664316475391388 -0.026555977761745453 7.064933776855469 0 0 0
-1.8091235160827637 1.814258337020874 5.629319667816162 0 0 1
0.522375226020813 0.03773529827594757 7.248174667358398 0 0 0
-0.6938365697860718 -0.8368605971336365 8.093053817749023 0 0 0
0.041544053703546524 1.7975565195083618 6.065543174743652 0 0 0
0.24049068987369537 0.1408744901418686 7.123514652252197 0 0 0
-0.23707400262355804 1.5186964273452759 6.083003044128418 0 0 0
0.5483718514442444 -0.1686859279870987 7.265248775482178 0 0 0
-0.5086457133293152 1.6509472131729126 6.213703155517578 0 0 0
0.4185250997543335 0.06452400982379913 7.175563812255859 0 0 0
-0.13511426746845245 -0.026893600821495056 7.092278480529785 0 0 0
0.7008233666419983 -0.8084033727645874 7.621668338775635 0 0 0
-0.45986923575401306 1.443021297454834 6.3147873878479 0 0 0
0.13130107522010803 1.3429853916168213 7.078914642333984 0 0 0
-0.16350844502449036 -0.3886011838912964 7.198358058929443 0 0 0
-1.3498796224594116 1.6132779121398926 6.499882698059082 0 0 0
-0.4197683036327362 -0.04267473518848419 7.225287437438965 0 0 0
-1.6415866613388062 1.674713134765625 6.550740718841553 0 0 0
-1.1989489793777466 1.6842918395996094 6.437249660491943 0 0 0
-0.07914373278617859 -0.15476971864700317 7.092993259429932 0 0 0
-1.7193773984909058 1.507905125617981 6.574973106384277 0 0 1
-0.805702269077301 0.9265720248222351 7.4798407554626465 0 0 0
-0.35136330127716064 -0.22358617186546326 7.200716972351074 0 0 0
-0.5317419171333313 1.2146745920181274 6.908337593078613 0 0 0
-0.15270189940929413 1.4537466764450073 6.375242710113525 0 0 0
-1.1219892501831055 1.296002984046936 6.750761032104492 0 0 0
0.7450700998306274 0.9277347326278687 7.812164783477783 0 0 0
-0.13191096484661102 1.374071478843689 6.379005432128906 0 0 0
-1.5348972082138062 1.4827325344085693 6.516536712646484 0 0 0
-0.43528467416763306 0.20778173208236694 7.265462875366211 0 0 0
-1.1938740015029907 1.211199164390564 7.1231303215026855 0 0 0
-0.3915287256240845 -0.044056277722120285 7.197042942047119 0 0 0
0.24545016884803772 -0.42067980766296387 7.226058483123779 0 0 0
-0.4207703173160553 -0.17981024086475372 7.242278099060059 0 0 0
-1.4018211364746094 1.4477068185806274 6.457759857177734 0 0 0
-0.0863306000828743 1.2513313293457031 6.409993648529053 0 0 0
0.17570415139198303 -0.5582069754600525 7.3443145751953125 0 0 0
0.5662266612052917 0.17433835566043854 7.337465286254883 0 0 0
-0.9567459225654602 1.29317307472229 6.758503437042236 0 0 0
-0.9042496681213379 -0.3485482335090637 8.106039047241211 0 0 0
-0.7891987562179565 1.2642968893051147 6.858673095703125 0 0 0
-0.020141568034887314 1.1744805574417114 6.442238807678223 0 0 0
-0.05261509492993355 0.2902235984802246 7.167105674743652 0 0 0
-0.5692038536071777 1.0576260089874268 7.279487609863281 0 0 0
0.330664724111557 -0.0021157131996005774 7.12973165512085 0 0 0
-1.4414311647415161 1.4482108354568481 6.473509788513184 0 0 0
0.10624559223651886 -0.3934221565723419 7.176466464996338 0 0 0
0.025711027905344963 0.30782032012939453 7.171355247497559 0 0 0
-0.7670271396636963 1.437959909439087 6.440627574920654 0 0 0
-0.953742265701294 0.7066309452056885 8.242241859436035 0 0 0
-0.31783661246299744 1.5578128099441528 6.132804870605469 0 0 0
-1.5888683795928955 1.616096019744873 6.553361415863037 0 0 0
-0.3983815312385559 0.17527784407138824 7.250013828277588 0 0 0
-0.30997052788734436 -0.12411964684724808 7.161515235900879 0 0 0
0.4591701626777649 -0.5751920938491821 7.689215660095215 0 0 0
-0.20516474545001984 0.17777158319950104 7.149866104125977 0 0 0
-1.8091235160827637 1.814258337020874 5.629319667816162 0 0 1
-0.13511426746845245 -0.026893600821495056 7.092278480529785 0 0 0
-0.5853705406188965 1.5074689388275146 6.194950103759766 0 0 0
-0.02403060905635357 0.26995643973350525 7.144383907318115 0 0 0
0.09230410307645798 -0.3016825318336487 7.111508369445801 0 0 0
-0.6510179042816162 -0.6410016417503357 8.066235542297363 0 0 0
-1.108973503112793 1.2112385034561157 7.089320659637451 0 0 0
-0.279797226190567 1.6361435651779175 6.141855239868164 0 0 0
0.2398306280374527 -0.24378861486911774 7.118749141693115 0 0 0
-0.09046398848295212 1.2751644849777222 6.424381256103516 0 0 0
0.06412971764802933 0.2927108108997345 7.157917022705078 0 0 0
0.211684912443161 0.17751945555210114 7.1334404945373535 0 0 0
-1.0702255964279175 1.3944677114486694 6.755799293518066 0 0 0
-0.4153333008289337 -0.10154039412736893 7.220938682556152 0 0 0
-0.2343110889196396 1.0691208839416504 6.433656215667725 0 0 0
-0.24780698120594025 0.22332757711410522 7.185714244842529 0 0 0
-0.014989531598985195 1.2746491432189941 6.43687105178833 0 0 0
-8.364392280578613 -0.432669073343277 17.72620391845703 0 0 0
0.757849931716919 -0.7461962699890137 7.61088752746582 0 0 0
0.6240308880805969 -0.7614511251449585 7.6531500816345215 0 0 0
-0.07697682082653046 0.2936626970767975 7.17031192779541 0 0 0
-0.1977062225341797 0.4174818694591522 7.280661582946777 0 0 0
-0.9141445755958557 -0.651181161403656 8.13669204711914 0 0 0
0.35681644082069397 0.040579717606306076 7.153136730194092 0 0 0
-0.1935061514377594 1.0734401941299438 6.417751312255859 0 0 0
0.2685210108757019 1.4004756212234497 6.8118367195129395 0 0 0
0.1773587018251419 1.3412877321243286 7.0934624671936035 0 0 0
-0.31775861978530884 -0.4145869314670563 7.302196502685547 0 0 0
-1.4968020915985107 1.5173410177230835 6.51766300201416 0 0 0
0.1587403565645218 -0.25634846091270447 7.101468563079834 0 0 0
-1.1801564693450928 1.3559187650680542 6.638310432434082 0 0 0
0.3828306198120117 0.03665950894355774 7.142746925354004 0 0 0
-1.1160008907318115 1.090667486190796 7.405019283294678 0 0 0
0.5003637671470642 0.19311241805553436 7.27894401550293 0 0 0
-0.806033194065094 1.4633127450942993 6.282570838928223 0 0 0
-1.0066405534744263 1.334660530090332 6.741540431976318 0 0 0
-0.9051622152328491 1.2891957759857178 6.76019287109375 0 0 0
-1.1313767433166504 1.2577310800552368 6.774138450622559 0 0 0
0.05459396913647652 1.7530332803726196 6.020358562469482 0 0 0
-1.5796822309494019 1.3737366199493408 6.928842067718506 0 0 0
-0.20348404347896576 0.4548981189727783 7.327829360961914 0 0 0
0.42044100165367126 0.3495197594165802 7.3204193115234375 0 0 0
-0.04182306304574013 -0.36476776003837585 7.1591668128967285 0 0 0
-0.27828463912010193 0.9822337627410889 7.453714847564697 0 0 0
0.11000816524028778 1.4211108684539795 6.62755823135376 0 0 0
-0.260107159614563 -0.39759379625320435 7.2520341873168945 0 0 0
-0.0944991260766983 1.225724697113037 6.408305644989014 0 0 0
-0.024778854101896286 -0.2090490758419037 7.093405723571777 0 0 0
-0.09378859400749207 1.081717848777771 6.442188262939453 0 0 0
-0.9133324027061462 1.4856051206588745 6.3153252601623535 0 0 0
-0.20739679038524628 1.475644826889038 6.2810516357421875 0 0 0
-0.7905254364013672 0.9105749726295471 7.49005651473999 0 0 0
0.41421252489089966 -0.37804579734802246 7.274038791656494 0 0 0
-0.7349045872688293 1.5889389514923096 6.269193172454834 0 0 0
0.35564711689949036 0.3427983820438385 7.2697954177856445 0 0 0
-0.6167911291122437 -0.6666391491889954 8.03445816040039 0 0 0
-0.26104316115379333 0.05321619659662247 7.137145519256592 0 0 0
0.05898516997694969 0.028210598975419998 7.082137584686279 0 0 0
0.41421252489089966 -0.37804579734802246 7.274038791656494 0 0 0
-1.937048316001892 1.7977230548858643 5.642248153686523 0 0 1
-0.06052642688155174 0.23368577659130096 7.131910800933838 0 0 0
-0.1158478707075119 1.1129201650619507 6.40966796875 0 0 0
-0.03922437131404877 -0.12760551273822784 7.079923152923584 0 0 0
-0.1479049026966095 -0.1859377920627594 7.1032915115356445 0 0 0
-1.1833902597427368 1.3903573751449585 6.618158340454102 0 0 0
-0.24956518411636353 1.3671832084655762 6.321474552154541 0 0 0
-0.29820603132247925 -0.0427057184278965 7.153345108032227 0 0 0
0.49750611186027527 -0.3197665810585022 7.327764987945557 0 0 0
0.6926631927490234 -0.4215109348297119 7.654059410095215 0 0 0
0.607053816318512 -0.16077689826488495 7.354933738708496 0 0 0
-0.44858089089393616 -0.28077253699302673 7.308879852294922 0 0 0
0.2621169090270996 0.4112759530544281 7.2749857902526855 0 0 0
-0.15026850998401642 1.0731712579727173 6.427191257476807 0 0 0
-0.2644295394420624 -0.10753677040338516 7.152380466461182 0 0 0
-0.1480562537908554 1.3703469038009644 6.350575923919678 0 0 0
-0.5853575468063354 1.6208339929580688 6.227460861206055 0 0 0
-0.7769251465797424 1.4709036350250244 6.287708282470703 0 0 0
-0.9540342688560486 0.9368966817855835 7.447035789489746 0 0 0
0.46529605984687805 0.2673415541648865 7.291433811187744 0 0 0
0.23766326904296875 0.007106930948793888 7.105504989624023 0 0 0
-0.1701982170343399 -0.2924186587333679 7.155090808868408 0 0 0
-0.031136512756347656 1.428675889968872 6.461967945098877 0 0 0
-0.9545630812644958 -0.34193021059036255 8.181815147399902 0 0 0
-0.2044065147638321 1.157355546951294 6.370210647583008 0 0 0
0.011607012711465359 1.6861522197723389 6.063581943511963 0 0 0
-0.19762463867664337 -0.38823074102401733 7.211012363433838 0 0 0
8.61438675201498e-05 0.19675932824611664 7.104224681854248 0 0 0
-0.010944199748337269 -0.2261027991771698 7.098923683166504 0 0 0
-0.26085758209228516 -0.01820497401058674 7.137866497039795 0 0 0
-1.937048316001892 1.7977230548858643 5.642248153686523 0 0 1
-0.1701982170343399 -0.2924186587333679 7.155090808868408 0 0 0
-1.653572916984558 1.660904884338379 6.565464496612549 0 0 0
-0.39254242181777954 -0.21922045946121216 7.2419257164001465 0 0 0
-1.0414412021636963 1.4122880697250366 6.500540256500244 0 0 0
-0.4577409327030182 1.7202507257461548 6.176555633544922 0 0 0
0.5009191632270813 -0.08478029072284698 7.21832275390625 0 0 0
-0.999877393245697 1.4070076942443848 6.491899490356445 0 0 0
-0.2852034270763397 1.4649325609207153 6.35176944732666 0 0 0
-0.9198393821716309 1.2933907508850098 6.752989768981934 0 0 0
-1.4844141006469727 1.4300527572631836 6.459595680236816 0 0 0
0.49956294894218445 -0.15769317746162415 7.2196784019470215 0 0 0
-1.1219892501831055 1.296002984046936 6.750761032104492 0 0 0
-0.8749330043792725 1.2646920680999756 6.800361633300781 0 0 0
-0.28204554319381714 1.4314661026000977 6.374720096588135 0 0 0
-0.2932421863079071 1.4905292987823486 6.114479064941406 0 0 0
-0.3015327751636505 0.1676228642463684 7.189050197601318 0 0 0
-1.207327127456665 1.4989031553268433 6.411162853240967 0 0 0
-0.93973708152771 1.4581440687179565 6.329587936401367 0 0 0
-1.2246650457382202 1.3987957239151 6.634598255157471 0 0 0
0.8097551465034485 -0.726965606212616 7.593307971954346 0 0 0
-0.9053319096565247 -0.7223827242851257 8.143503189086914 0 0 0
-0.03112701140344143 1.428858995437622 6.461937427520752 0 0 0
-1.26480233669281 1.4643653631210327 6.414117813110352 0 0 0
-0.11832751333713531 1.5230802297592163 6.0279998779296875 0 0 0
-0.7241119146347046 1.3093701601028442 6.8869948387146 0 0 0
-1.1308016777038574 1.447505235671997 6.386088848114014 0 0 0
-0.0764097347855568 -0.513241708278656 7.283905506134033 0 0 0
0.07031084597110748 -0.14345429837703705 7.0804548263549805 0 0 0
0.20070746541023254 1.3314943313598633 7.123956680297852 0 0 0
-0.5976431369781494 1.4703166484832764 6.24409818649292 0 0 0
0.19440804421901703 0.3872555196285248 7.2346296310424805 0 0 0
0.25940197706222534 0.7674173712730408 7.597733497619629 0 0 0
-0.11529912054538727 0.3183785676956177 7.186774730682373 0 0 0
-1.7232825756072998 1.649616003036499 6.621678829193115 0 0 0
-1.844222068786621 1.804660677909851 5.625133514404297 0 0 1
-0.8429136872291565 1.2615916728973389 6.813354969024658 0 0 0
0.28911107778549194 0.028892317786812782 7.106672763824463 0 0 0
-1.6194441318511963 1.6883248090744019 6.545267105102539 0 0 0
-0.022623136639595032 1.6592435836791992 6.065804958343506 0 0 0
-0.8080771565437317 1.3364957571029663 6.794205665588379 0 0 0
-1.6112221479415894 1.504455327987671 6.565150737762451 0 0 0
0.2780667245388031 -0.07170441001653671 7.119025707244873 0 0 0
0.41768142580986023 0.30942004919052124 7.295001029968262 0 0 0
-0.8981803059577942 1.5027835369110107 6.296324729919434 0 0 0
-0.22508347034454346 0.1486259549856186 7.158807277679443 0 0 0
-0.08968489617109299 1.3811156749725342 6.449249267578125 0 0 0
-0.8984343409538269 1.282571792602539 6.777468204498291 0 0 0
0.3029847741127014 -0.2062692642211914 7.134515285491943 0 0 0
0.4179091155529022 0.33599796891212463 7.315380096435547 0 0 0
0.2815476953983307 -0.4036441147327423 7.215704441070557 0 0 0
-0.7461028695106506 1.2644479274749756 6.893472194671631 0 0 0
-1.1354002952575684 1.265147089958191 6.7491679191589355 0 0 0
0.3022105097770691 -0.11925364285707474 7.116899013519287 0 0 0
-0.06801964342594147 1.2735328674316406 6.412516117095947 0 0 0
-0.3061932325363159 0.2830240726470947 7.233715534210205 0 0 0
-0.8011643290519714 0.8808541297912598 7.456396579742432 0 0 0
-0.27951738238334656 -0.1835920214653015 7.146120071411133 0 0 0
-0.27404484152793884 0.4534003436565399 7.350149631500244 0 0 0
-1.1792564392089844 1.3673120737075806 6.633351802825928 0 0 0
-1.0895103216171265 0.8866197466850281 7.51690149307251 0 0 0
-0.39967265725135803 0.016184387728571892 7.212099552154541 0 0 0
0.7152855396270752 0.6721351742744446 7.7273688316345215 0 0 0
0.6003309488296509 -0.002852617297321558 7.323301792144775 0 0 0
-0.7567054033279419 1.2732900381088257 6.872738838195801 0 0 0
0.007028957828879356 -0.19573280215263367 7.086734771728516 0 0 0
0.5049535036087036 -0.721581220626831 7.7021284103393555 0 0 0
-0.6176844835281372 1.4839409589767456 6.203040599822998 0 0 0
0.04615382105112076 0.27691763639450073 7.152976036071777 0 0 0
0.32037100195884705 -0.352936714887619 7.202539920806885 0 0 0
-0.21571078896522522 1.453739881515503 6.3669352531433105 0 0 0
-0.1419324427843094 -0.5423056483268738 7.348598957061768 0 0 0
-0.5979329943656921 1.5185085535049438 6.189972400665283 0 0 0
0.5352084040641785 -0.10910283029079437 7.251914978027344 0 0 0
0.5176392197608948 0.17552095651626587 7.2659502029418945 0 0 0
-0.8133623600006104 1.721665859222412 6.300678253173828 0 0 0
-0.12474570423364639 1.072812557220459 6.431826114654541 0 0 0
-0.45102497935295105 1.4720836877822876 6.253750324249268 0 0 0
-1.0066405534744263 1.334660530090332 6.741540431976318 0 0 0
-0.747315526008606 0.5513092279434204 8.161673545837402 0 0 0
0.15561529994010925 -0.464481920003891 7.228787422180176 0 0 0
0.7416686415672302 -0.8739197850227356 7.556463241577148 0 0 0
0.607053816318512 -0.16077689826488495 7.354933738708496 0 0 0
0.2554088532924652 0.15739606320858002 7.131155967712402 0 0 0
0.036135122179985046 -0.12633000314235687 7.085762977600098 0 0 0
0.15792293846607208 0.697191059589386 7.575918197631836 0 0 0
-1.6568645238876343 1.5159536600112915 6.570245265960693 0 0 0
-0.41145169734954834 -0.12535369396209717 7.210679054260254 0 0 0
-1.647821307182312 1.602386713027954 6.572263717651367 0 0 0
-0.7323430180549622 -0.5441805124282837 8.108637809753418 0 0 0
0.2374354600906372 0.4307730197906494 7.301142692565918 0 0 0
0.13431255519390106 1.1752692461013794 7.252060890197754 0 0 0
-0.3556840717792511 0.1943037062883377 7.23758602142334 0 0 0
0.04270350560545921 -0.2891649305820465 7.128974437713623 0 0 0
-0.0735260397195816 1.1710715293884277 6.420769214630127 0 0 0
-1.107744812965393 1.428452730178833 6.498527526855469 0 0 0
-0.6307694911956787 1.428450345993042 6.415135860443115 0 0 0
-0.3076198399066925 1.5693942308425903 6.120748996734619 0 0 0
-1.8800580501556396 1.8175028562545776 5.639701843261719 0 0 0
-0.11168559640645981 1.6496614217758179 6.0856428146362305 0 0 0
-0.328689306974411 0.9662625789642334 7.487320423126221 0 0 0
-0.8949530720710754 1.3392502069473267 6.7561235427856445 0 0 0
-1.0527925491333008 1.4275379180908203 6.493051528930664 0 0 0
-0.7253743410110474 1.239919900894165 6.967934608459473 0 0 0
0.1015215516090393 0.2800281047821045 7.140961647033691 0 0 0
-0.6097517013549805 1.4989328384399414 6.18989896774292 0 0 0
0.005045407917350531 1.443711280822754 6.466580390930176 0 0 0
0.08469283580780029 0.21971213817596436 7.119051456451416 0 0 0
0.391922265291214 1.0324474573135376 7.823528289794922 0 0 0
-0.20858816802501678 0.433608740568161 7.2977495193481445 0 0 0
0.26737460494041443 -0.17578400671482086 7.109318256378174 0 0 0
-0.005770880728960037 0.4349219501018524 7.24198579788208 0 0 0
0.288980096578598 1.484034776687622 6.579751014709473 0 0 0
-0.8371054530143738 1.2696043252944946 6.8024516105651855 0 0 0
-1.0601305961608887 1.2239097356796265 7.063263416290283 0 0 0
0.007444898132234812 0.100250244140625 7.092077255249023 0 0 0
-0.4416764974594116 0.14449182152748108 7.272940158843994 0 0 0
-0.17097868025302887 -0.32784217596054077 7.163405895233154 0 0 0
-0.14056247472763062 -0.12023627012968063 7.094998359680176 0 0 0
0.1869959682226181 1.4573736190795898 6.55294132232666 0 0 0
-0.013146954588592052 1.64059317111969 6.016456604003906 0 0 0
-0.17947007715702057 -0.20322804152965546 7.132506847381592 0 0 0
0.6002601981163025 -0.7485142350196838 7.681392669677734 0 0 0
-0.15204352140426636 -0.20974856615066528 7.115062236785889 0 0 0
-1.4844141006469727 1.4300527572631836 6.459595680236816 0 0 0
-0.22508347034454346 0.1486259549856186 7.158807277679443 0 0 0
0.2200855016708374 -0.4957433342933655 7.284693717956543 0 0 0
0.22838453948497772 0.3469691276550293 7.221067905426025 0 0 0
-0.19449375569820404 -0.4267755448818207 7.240206241607666 0 0 0
-0.5937638282775879 1.4921578168869019 6.1892991065979 0 0 0
-0.15987904369831085 0.21637868881225586 7.152400016784668 0 0 0
0.17570415139198303 -0.5582069754600525 7.3443145751953125 0 0 0
-0.4176695644855499 0.14863543212413788 7.250025749206543 0 0 0
-0.10114516317844391 -0.5205060243606567 7.2976460456848145 0 0 0
0.7702031135559082 -0.009938407689332962 7.659137725830078 0 0 0
-1.0806964635849 1.4137332439422607 6.523921966552734 0 0 0
-0.5473629236221313 -0.13555683195590973 7.347350597381592 0 0 0
-0.2725817859172821 1.3819772005081177 6.32421350479126 0 0 0
-0.07717056572437286 1.6606663465499878 6.0999436378479 0 0 0
-0.4948621988296509 1.4335535764694214 6.508371353149414 0 0 0
-0.3222571611404419 -0.8174871802330017 7.945088863372803 0 0 0
-0.2235306203365326 0.18676678836345673 7.15915060043335 0 0 0
-0.018234169110655785 0.05590824782848358 7.090271949768066 0 0 0
-0.3173685669898987 -0.7987261414527893 7.959860324859619 0 0 0
-0.7579693794250488 1.617769479751587 6.290388584136963 0 0 0
0.662900984287262 0.4398457705974579 7.7166900634765625 0 0 0
-0.08284319192171097 0.03239556401968002 7.080061435699463 0 0 0
0.7785102128982544 -0.6303360462188721 7.626855373382568 0 0 0
-0.24571596086025238 1.0771119594573975 6.4347686767578125 0 0 0
-0.7915710806846619 0.9416912198066711 7.484146595001221 0 0 0
-0.7072758674621582 0.8942643404006958 7.42060661315918 0 0 0
-0.7673252820968628 0.6294975876808167 8.186750411987305 0 0 0
-1.1938740015029907 1.211199164390564 7.1231303215026855 0 0 0
-0.2743743658065796 1.2170811891555786 6.356389045715332 0 0 0
0.16889889538288116 1.4436849355697632 6.6439690589904785 0 0 0
-0.31034335494041443 -0.22499774396419525 7.180962085723877 0 0 0
0.6568431854248047 -0.7220496535301208 7.655467510223389 0 0 0
-1.7345316410064697 1.42818284034729 6.554432392120361 0 0 0
0.3385898768901825 1.4855728149414062 6.627522945404053 0 0 0
-0.8718964457511902 -0.7478146553039551 8.140111923217773 0 0 0
-0.013325829058885574 0.4132620692253113 7.220284461975098 0 0 0
0.6910684704780579 0.9353258013725281 7.76821231842041 0 0 0
-0.9028522968292236 1.3094218969345093 6.759452819824219 0 0 0
-0.5686131119728088 1.4783204793930054 6.2108354568481445 0 0 0
0.5321139097213745 1.5195807218551636 7.21198844909668 0 0 0
-0.1639627069234848 -0.5246872901916504 7.322873115539551 0 0 0
-0.03896476328372955 1.6326321363449097 6.069944858551025 0 0 0
0.4302710294723511 -0.4024948477745056 7.295806884765625 0 0 0
-0.40483561158180237 -0.17699772119522095 7.224999904632568 0 0 0
0.34695109724998474 1.1461942195892334 7.83392858505249 0 0 0
-0.034524787217378616 0.43073350191116333 7.220975399017334 0 0 0
0.343654602766037 0.41837263107299805 7.327946186065674 0 0 0
-0.5853575468063354 1.6208339929580688 6.227460861206055 0 0 0
-1.6653413772583008 1.5907816886901855 6.579054355621338 0 0 0
0.01889570988714695 -0.09675222635269165 7.06813383102417 0 0 0
-1.204195261001587 1.4099867343902588 6.6050310134887695 0 0 0
0.05817772448062897 0.5854663252830505 7.397036552429199 0 0 0
0.08474013954401016 0.06903926283121109 7.08494234085083 0 0 0
0.2571396827697754 -0.013214711099863052 7.089662075042725 0 0 0
-1.0879228115081787 1.2820643186569214 6.748291969299316 0 0 0
-1.669603943824768 1.3983962535858154 6.544804573059082 0 0 0
-1.0381983518600464 1.6856712102890015 6.368633270263672 0 0 0
-0.27597737312316895 -0.5053748488426208 7.377200603485107 0 0 0
-0.5580516457557678 0.8489741086959839 8.125321388244629 0 0 0
-0.6086771488189697 1.5551217794418335 6.23566198348999 0 0 0
-0.5902104377746582 1.45298171043396 6.250311374664307 0 0 0
0.27037572860717773 1.4728795289993286 6.578665256500244 0 0 0
-0.5024850964546204 0.224155455827713 7.366931438446045 0 0 0
-0.8800002932548523 0.3360912799835205 8.195035934448242 0 0 0
0.40154367685317993 0.28176334500312805 7.256964683532715 0 0 0
-0.8080771565437317 1.3364957571029663 6.794205665588379 0 0 0
0.06102941185235977 1.4641824960708618 6.4684224128723145 0 0 0
-0.8353573083877563 1.4248126745224 6.456945419311523 0 0 0
-1.052428126335144 1.281470537185669 6.7539544105529785 0 0 0
-0.23740796744823456 1.4667612314224243 6.321177959442139 0 0 0
-0.20707300305366516 1.5006415843963623 6.088894367218018 0 0 0
0.4302710294723511 -0.4024948477745056 7.295806884765625 0 0 0
-0.03711241856217384 0.2635478973388672 7.141669273376465 0 0 0
-0.714200496673584 1.5671508312225342 6.272068977355957 0 0 0
0.6946831345558167 0.46343550086021423 7.719550132751465 0 0 0
-0.2570817768573761 1.4495348930358887 6.337852954864502 0 0 0
-0.6803894639015198 1.4944348335266113 6.222179412841797 0 0 0
-0.1360512226819992 0.2561013996601105 7.167590141296387 0 0 0
-0.4210217595100403 -0.25487929582595825 7.275297164916992 0 0 0
-0.7461028695106506 1.2644479274749756 6.893472194671631 0 0 0
0.11515533179044724 0.034109119325876236 7.070356369018555 0 0 0
-0.4779273271560669 1.7205806970596313 6.190932750701904 0 0 0
-1.0365833044052124 1.3771108388900757 6.754606246948242 0 0 0
0.09486906975507736 0.17593024671077728 7.112832069396973 0 0 0
-0.035034507513046265 0.703534722328186 7.726758003234863 0 0 0
-0.21410872042179108 1.0303947925567627 7.397223949432373 0 0 0
-0.6962661743164062 1.484433889389038 6.241288661956787 0 0 0
-0.7672119140625 -0.4196082651615143 8.104620933532715 0 0 0
0.4178830683231354 1.3153005838394165 7.848960876464844 0 0 0
-0.10198063403367996 -0.20711800456047058 7.104410171508789 0 0 0
0.2200855016708374 -0.4957433342933655 7.284693717956543 0 0 0
0.03900383040308952 -0.3032940924167633 7.115324974060059 0 0 0
-0.41717711091041565 0.35644882917404175 7.396697521209717 0 0 0
-0.38570186495780945 -0.2373008131980896 7.231225490570068 0 0 0
0.6278498768806458 0.5645791888237 7.785690784454346 0 0 0
-0.05799337476491928 1.6571450233459473 6.075852870941162 0 0 0
0.6021004319190979 0.08941026031970978 7.349941730499268 0 0 0
0.39201247692108154 -0.4466891586780548 7.309538841247559 0 0 0
-0.1722329705953598 1.501750111579895 6.122249126434326 0 0 0
-0.17577192187309265 0.749695360660553 7.783391952514648 0 0 0
-0.8281440734863281 0.8635491728782654 7.469170093536377 0 0 0
0.07251706719398499 -0.5560109615325928 7.313753128051758 0 0 0
-0.8860613107681274 -0.1426675021648407 8.172826766967773 0 0 0
-0.03590554744005203 1.6862995624542236 6.098358631134033 0 0 0
-1.5151842832565308 1.6637015342712402 6.527458190917969 0 0 0
-1.4565364122390747 1.4618492126464844 6.472601890563965 0 0 0
-0.5700075626373291 1.6472266912460327 6.201080322265625 0 0 0
-1.25252103805542 1.3785957098007202 6.673842430114746 0 0 0
-0.22741734981536865 1.0839455127716064 6.426974296569824 0 0 0
-0.03711241856217384 0.2635478973388672 7.141669273376465 0 0 0
-0.7207124829292297 1.4662401676177979 6.290480136871338 0 0 0
-1.6254026889801025 1.4355360269546509 6.5122857093811035 0 0 0
-0.2903660237789154 1.384342908859253 6.346190452575684 0 0 0
-0.022063007578253746 1.0892090797424316 7.321296215057373 0 0 0
-0.6587090492248535 1.7310330867767334 6.270672798156738 0 0 0
-0.05563490837812424 0.3412334620952606 7.192015647888184 0 0 0
-0.9150277972221375 1.4529123306274414 6.30491828918457 0 0 0
-0.07841327786445618 1.3856117725372314 6.413030624389648 0 0 0
-0.02464553341269493 -0.5170103311538696 7.276828765869141 0 0 0
-0.1523454785346985 0.4655492603778839 7.305675983428955 0 0 0
-0.15204352140426636 -0.20974856615066528 7.115062236785889 0 0 0
0.5177887678146362 -0.1187465712428093 7.242737293243408 0 0 0
-0.05872974917292595 -0.5460277795791626 7.31443977355957 0 0 0
-0.17799633741378784 0.11989366263151169 7.12412166595459 0 0 0
0.1610792726278305 -0.579136312007904 7.363037586212158 0 0 0
0.5097927451133728 0.2118457704782486 7.281919956207275 0 0 0
0.3086056411266327 -0.4980117082595825 7.32263708114624 0 0 0
-0.2621651589870453 1.738866925239563 6.120500564575195 0 0 0
-0.6423860788345337 1.4465488195419312 6.4050397872924805 0 0 0
-1.6653413772583008 1.5907816886901855 6.579054355621338 0 0 0
-0.4268471300601959 0.022066377103328705 7.2277092933654785 0 0 0
0.08390339463949203 1.423730731010437 6.593609809875488 0 0 0
-0.40343621373176575 -0.7265183329582214 7.994476795196533 0 0 0
-0.3015327751636505 0.1676228642463684 7.189050197601318 0 0 0
0.5049535036087036 -0.721581220626831 7.7021284103393555 0 0 0
-1.008021354675293 1.2208397388458252 7.059830665588379 0 0 0
-0.06270287930965424 1.6669411659240723 6.082785129547119 0 0 0
-0.14102177321910858 0.3035452961921692 7.187921047210693 0 0 0
-0.11139422655105591 1.4437999725341797 6.375893592834473 0 0 0
-0.09739112108945847 1.5178524255752563 6.039271831512451 0 0 0
0.015053050592541695 -0.44057610630989075 7.185456275939941 0 0 0
0.3530694246292114 -0.4968779981136322 7.341536998748779 0 0 0
-0.2616640031337738 1.3558177947998047 6.319149017333984 0 0 0
0.09985959529876709 -0.6021965146064758 7.4095611572265625 0 0 0
-0.42591220140457153 0.1696576327085495 7.261434555053711 0 0 0
-0.36882320046424866 0.32311782240867615 7.284969806671143 0 0 0
-1.1425187587738037 1.688609004020691 6.431756019592285 0 0 0
0.18449655175209045 1.4654349088668823 6.508716583251953 0 0 0
-0.7026482820510864 1.245474100112915 7.003866672515869 0 0 0
-0.1568448394536972 -0.1155584380030632 7.1069440841674805 0 0 0
0.19819317758083344 1.4491503238677979 6.558751583099365 0 0 0
0.03778780624270439 1.3757460117340088 6.482583999633789 0 0 0
-0.3627108931541443 0.3556059002876282 7.348387718200684 0 0 0
-1.077816367149353 1.422982096672058 6.488232135772705 0 0 0
0.2821124494075775 1.1119534969329834 7.849237442016602 0 0 0
0.7772336602210999 -0.10887716710567474 7.701128959655762 0 0 0
0.39568984508514404 1.192202091217041 7.8392205238342285 0 0 0
-0.2139289677143097 1.1724376678466797 6.359490394592285 0 0 0
-0.17771297693252563 1.0434246063232422 6.410579681396484 0 0 0
-1.0539253950119019 1.3314533233642578 6.7354021072387695 0 0 0
0.1881198287010193 -0.7874380350112915 7.765839576721191 0 0 0
0.663969874382019 -0.4585574269294739 7.670170307159424 0 0 0
-0.013325829058885574 0.4132620692253113 7.220284461975098 0 0 0
0.39772430062294006 -0.17506296932697296 7.176260471343994 0 0 0
-0.5203571915626526 0.21451500058174133 7.377139568328857 0 0 0
0.24601036310195923 -0.024742044508457184 7.07937479019165 0 0 0
-0.34082645177841187 1.4464936256408691 6.34233283996582 0 0 0
-0.12382175773382187 1.0537109375 6.439164161682129 0 0 0
0.14408230781555176 -0.020915653556585312 7.077449321746826 0 0 0
-0.7582960724830627 1.608089804649353 6.297112941741943 0 0 0
-1.7477235794067383 1.6766045093536377 6.600234031677246 0 0 1
0.607053816318512 -0.16077689826488495 7.354933738708496 0 0 0
-0.11973448842763901 1.3186067342758179 6.379272937774658 0 0 0
-0.8287560343742371 -0.6879589557647705 8.116620063781738 0 0 0
-0.8570175766944885 0.8791946172714233 7.497138023376465 0 0 0
-0.2840083837509155 1.5760005712509155 6.130159854888916 0 0 0
-1.159285306930542 1.389642596244812 6.616490840911865 0 0 0
0.22564981877803802 0.38453060388565063 7.244813919067383 0 0 0
-0.782615602016449 1.7036598920822144 6.299515247344971 0 0 0
0.4815576672554016 -0.6300476789474487 7.7142462730407715 0 0 0
0.5326833724975586 0.4693344533443451 7.654234886169434 0 0 0
0.2687993347644806 -0.0008146815234795213 7.110745429992676 0 0 0
0.18871833384037018 -0.08821457624435425 7.090855598449707 0 0 0
-0.2698345482349396 0.036860391497612 7.131590843200684 0 0 0
0.3441143035888672 0.1171170026063919 7.160623550415039 0 0 0
-0.5052947402000427 -0.2894858121871948 7.393194675445557 0 0 0
0.4825030267238617 -0.7643678188323975 7.704071521759033 0 0 0
0.055142831057310104 -0.568362832069397 7.334789752960205 0 0 0
-0.7323430180549622 -0.5441805124282837 8.108637809753418 0 0 0
0.5932697653770447 -0.14492368698120117 7.319099426269531 0 0 0
-1.0271576642990112 1.2770980596542358 6.755610466003418 0 0 0
0.7181766033172607 -0.6809747219085693 7.660869121551514 0 0 0
-0.6015497446060181 1.4318006038665771 6.393841743469238 0 0 0
0.817451000213623 -0.8124766945838928 7.594636917114258 0 0 0
0.3664703667163849 1.5389379262924194 6.626551151275635 0 0 0
0.042668040841817856 1.3249868154525757 6.446314811706543 0 0 0
-0.24599245190620422 1.1885398626327515 6.351349830627441 0 0 0
-0.749563992023468 -0.6700493097305298 8.090322494506836 0 0 0
-0.05872974917292595 -0.5460277795791626 7.31443977355957 0 0 0
-0.24630625545978546 1.2998164892196655 6.3113627433776855 0 0 0
-0.3065917193889618 1.2584971189498901 6.365712642669678 0 0 0
0.2775300443172455 0.04957926645874977 7.135512828826904 0 0 0
-0.34963133931159973 0.47881457209587097 7.4441118240356445 0 0 0
-0.6181739568710327 1.520904541015625 6.19514799118042 0 0 0
0.20901724696159363 0.35954412817955017 7.225498676300049 0 0 0
-0.3952814042568207 1.445688247680664 6.352020263671875 0 0 0
-0.5283386707305908 1.6094317436218262 6.214512348175049 0 0 0
-0.2534375488758087 1.3174375295639038 6.327959060668945 0 0 0
-0.15200845897197723 0.326923668384552 7.20065450668335 0 0 0
-0.2226325273513794 0.12014393508434296 7.142233371734619 0 0 0
0.28014180064201355 1.441267967224121 6.701398849487305 0 0 0
0.6866922974586487 -0.5617342591285706 7.659366130828857 0 0 0
-0.191792830824852 0.4139426648616791 7.27236270904541 0 0 0
0.6692590117454529 -0.42884382605552673 7.660394191741943 0 0 0
-1.159513235092163 1.300944209098816 6.72239351272583 0 0 0
-0.11957111954689026 -0.07049887627363205 7.08552885055542 0 0 0
-0.594989538192749 1.7106337547302246 6.218614101409912 0 0 0
0.4781953990459442 1.4165314435958862 7.23145866394043 0 0 0
0.04319807142019272 -0.8177741169929504 7.873671054840088 0 0 0
-0.6008996963500977 1.661562442779541 6.228456497192383 0 0 0
-0.10516852140426636 -0.2909252345561981 7.1097917556762695 0 0 0
-0.23535387217998505 1.1201274394989014 6.406322956085205 0 0 0
0.5003637671470642 0.19311241805553436 7.27894401550293 0 0 0
-0.14056815207004547 0.8548925518989563 7.765985488891602 0 0 0
-0.24784544110298157 -0.385419636964798 7.25254487991333 0 0 0
0.1992252618074417 -0.5076233744621277 7.288741111755371 0 0 0
-1.041839838027954 1.343522310256958 6.751638412475586 0 0 0
-0.5115866661071777 1.7151371240615845 6.1939215660095215 0 0 0
-0.21676571667194366 0.05134184658527374 7.11488151550293 0 0 0
-0.7619715332984924 -0.48879897594451904 8.112601280212402 0 0 0
0.124855175614357 1.116138219833374 7.869491100311279 0 0 0
-0.4236214756965637 0.059098511934280396 7.2323222160339355 0 0 0
-0.7102345824241638 1.2643473148345947 6.9442243576049805 0 0 0
0.3664703667163849 1.5389379262924194 6.626551151275635 0 0 0
-0.11168559640645981 1.6496614217758179 6.0856428146362305 0 0 0
-0.4676145911216736 0.012458529323339462 7.2351837158203125 0 0 0
-0.4567611813545227 0.24282431602478027 7.327165126800537 0 0 0
-0.4427714943885803 0.09487899392843246 7.2504801750183105 0 0 0
-0.18842634558677673 0.18494635820388794 7.149993419647217 0 0 0
-0.3689340651035309 -0.09215275198221207 7.214968204498291 0 0 0
0.31787726283073425 1.0213971138000488 7.863722324371338 0 0 0
-1.3923499584197998 1.6785051822662354 6.499217510223389 0 0 0
0.09375997632741928 1.541163444519043 6.013003826141357 0 0 0
-0.6015497446060181 1.4318006038665771 6.393841743469238 0 0 0
0.025283263996243477 1.4166327714920044 6.481569290161133 0 0 0
-0.08587922155857086 -0.3970784842967987 7.170199394226074 0 0 0
0.1569432020187378 0.45993080735206604 7.294168472290039 0 0 0
-0.06304125487804413 1.460907220840454 6.356648921966553 0 0 0
0.20716498792171478 -0.3004067838191986 7.137146472930908 0 0 0
0.7273615598678589 -0.5490719079971313 7.644142150878906 0 0 0
-0.37849628925323486 1.7263859510421753 6.15649938583374 0 0 0
-0.4752293825149536 1.4629135131835938 6.264886856079102 0 0 0
0.9027086496353149 -0.8815787434577942 7.711972236633301 0 0 0
-0.7641150951385498 1.3922878503799438 6.87272310256958 0 0 0
-0.8860613107681274 -0.1426675021648407 8.172826766967773 0 0 0
-0.24516968429088593 0.4496689438819885 7.331610679626465 0 0 0
0.6105709075927734 -0.8343539834022522 7.588127136230469 0 0 0
0.1999560296535492 1.4628604650497437 6.557864665985107 0 0 0
-0.4268471300601959 0.022066377103328705 7.2277092933654785 0 0 0
-0.26000505685806274 0.5192136168479919 7.406375408172607 0 0 0
-0.2033214271068573 0.26348817348480225 7.183054447174072 0 0 0
-0.43162044882774353 1.4653345346450806 6.328488349914551 0 0 0
-0.028231743723154068 -0.35530194640159607 7.145211696624756 0 0 0
-0.10131381452083588 1.049202561378479 6.438533782958984 0 0 0
-0.2515261173248291 1.4729326963424683 6.2755327224731445 0 0 0
0.6266941428184509 -0.7431733012199402 7.675583839416504 0 0 0
-1.1171754598617554 1.2834287881851196 6.764674186706543 0 0 0
-1.647821307182312 1.602386713027954 6.572263717651367 0 0 0
0.19020429253578186 1.3518794775009155 6.998315811157227 0 0 0
-0.5382018089294434 0.7388679385185242 8.107146263122559 0 0 0
-1.1677840948104858 1.3834795951843262 6.656207084655762 0 0 0
-0.5014671087265015 -0.0864170640707016 7.302741050720215 0 0 0
-0.749391496181488 1.412189245223999 6.668642044067383 0 0 0
-0.8344749808311462 0.6274932026863098 8.182159423828125 0 0 0
0.06457444280385971 -0.10626623034477234 7.076519966125488 0 0 0
-0.6009085774421692 1.4201698303222656 6.409981727600098 0 0 0
0.7400559186935425 -0.8629717826843262 7.5875959396362305 0 0 0
-0.28536078333854675 0.07460630685091019 7.160450458526611 0 0 0
-1.2334024906158447 1.365140676498413 6.665108680725098 0 0 0
-1.2574942111968994 1.1906827688217163 7.219028472900391 0 0 0
-0.25752145051956177 0.45933273434638977 7.345851421356201 0 0 0
-0.19926521182060242 1.4440745115280151 6.35151481628418 0 0 0
0.661970853805542 0.8192594647407532 7.7425761222839355 0 0 0
-0.12875676155090332 1.5076321363449097 6.185806751251221 0 0 0
0.10953029990196228 0.39213886857032776 7.219915390014648 0 0 0
-0.5691627860069275 1.6799215078353882 6.228522777557373 0 0 0
0.12541285157203674 1.4843231439590454 6.36393404006958 0 0 0
-0.9022003412246704 -0.012005148455500603 8.184789657592773 0 0 0
0.5905014872550964 -0.2927916347980499 7.384425640106201 0 0 0
-0.32071226835250854 -0.004339602775871754 7.163802623748779 0 0 0
0.7060394883155823 -0.5976669192314148 7.644359111785889 0 0 0
-0.8255371451377869 0.5450292229652405 8.195556640625 0 0 0
0.46062347292900085 -0.3411503732204437 7.27880334854126 0 0 0
-1.0635716915130615 1.434677004814148 6.47260046005249 0 0 0
-0.31692925095558167 0.04228570684790611 7.16990852355957 0 0 0
-0.867388904094696 -0.12273853272199631 8.171278953552246 0 0 0
0.93634432554245 -0.8895750045776367 7.797847747802734 0 0 0
0.4686186611652374 -0.3158993422985077 7.2732157707214355 0 0 0
0.4962203800678253 0.2564564347267151 7.303960800170898 0 0 0
0.6321499943733215 1.3865349292755127 7.590147495269775 0 0 0
-0.5095937252044678 -0.6090483069419861 8.049681663513184 0 0 0
-0.5178096294403076 1.52741277217865 6.16845703125 0 0 0
-0.4752293825149536 1.4629135131835938 6.264886856079102 0 0 0
-0.2235306203365326 0.18676678836345673 7.15915060043335 0 0 0
0.09486906975507736 0.17593024671077728 7.112832069396973 0 0 0
0.3222171664237976 -0.3900367021560669 7.206085681915283 0 0 0
0.7373305559158325 -0.5879798531532288 7.63726282119751 0 0 0
0.463887482881546 -0.6501197218894958 7.707738876342773 0 0 0
-0.3137960433959961 1.6400020122528076 6.147429943084717 0 0 0
0.49608299136161804 0.3776038885116577 7.407418251037598 0 0 0
-0.5011932849884033 -0.7993510365486145 7.9927659034729 0 0 0
-0.3695635497570038 1.446793556213379 6.338962554931641 0 0 0
0.3653697371482849 -0.20785528421401978 7.155633449554443 0 0 0
0.22365844249725342 1.3730785846710205 6.923915863037109 0 0 0
0.7435972094535828 1.4037065505981445 7.871953010559082 0 0 0
-0.5041884183883667 1.3826910257339478 6.645442485809326 0 0 0
-0.40444934368133545 1.4559942483901978 6.3382086753845215 0 0 0
-1.7351765632629395 1.675796627998352 6.655996322631836 0 0 0
-0.5712224245071411 -0.6718848943710327 8.039427757263184 0 0 0
0.4765947163105011 0.046116866171360016 7.197239875793457 0 0 0
-0.05572085827589035 0.4248369336128235 7.213788032531738 0 0 0
-0.37171420454978943 0.12318935990333557 7.204864501953125 0 0 0
-0.36465802788734436 0.1066596582531929 7.18814754486084 0 0 0
0.0996636226773262 0.5898649096488953 7.4170918464660645 0 0 0
0.23517940938472748 0.5522996187210083 7.414668560028076 0 0 0
-0.08088236302137375 0.3482644557952881 7.201974868774414 0 0 0
0.31300991773605347 0.4367523789405823 7.348897933959961 0 0 0
0.7934163808822632 -0.48102980852127075 7.653260707855225 0 0 0
0.31584396958351135 -0.5335879921913147 7.3774847984313965 0 0 0
0.5089876651763916 1.4346519708633423 7.226482391357422 0 0 0
-0.08284319192171097 0.03239556401968002 7.080061435699463 0 0 0
0.4224560856819153 -0.6354058384895325 7.709953308105469 0 0 0
-0.7963833808898926 -0.4681055247783661 8.11940860748291 0 0 0
-1.1167457103729248 1.4029256105422974 6.536927223205566 0 0 0
-0.8569665551185608 1.4522846937179565 6.375991344451904 0 0 0
-0.7503252029418945 -0.7900834083557129 8.074909210205078 0 0 0
0.6954217553138733 -0.5254797339439392 7.6543965339660645 0 0 0
-0.11973448842763901 1.3186067342758179 6.379272937774658 0 0 0
0.15123291313648224 1.4684662818908691 6.440858840942383 0 0 0
-0.2737494707107544 -0.3830307722091675 7.246976852416992 0 0 0
0.46623528003692627 -0.39603951573371887 7.333502292633057 0 0 0
-0.15524174273014069 1.0402253866195679 6.403799057006836 0 0 0
-0.8202645778656006 1.31840980052948 6.793778419494629 0 0 0
-0.40946054458618164 0.39081841707229614 7.409234523773193 0 0 0
0.44459715485572815 0.15806038677692413 7.208191394805908 0 0 0
-0.784710168838501 0.9752485156059265 7.505095958709717 0 0 0
0.6534278988838196 -0.4301563501358032 7.674282550811768 0 0 0
-0.21440407633781433 1.0035282373428345 6.467125415802002 0 0 0
-0.048108652234077454 1.4276955127716064 6.415480613708496 0 0 0
-0.49590522050857544 1.4739680290222168 6.1543145179748535 0 0 0
-1.1973203420639038 1.2586135864257812 6.872252464294434 0 0 0
-0.6970452070236206 1.015571117401123 7.485156536102295 0 0 0
-0.14870098233222961 0.4880158007144928 7.314004898071289 0 0 0
-0.2327500432729721 1.3918944597244263 6.3334431648254395 0 0 0
0.502410352230072 -0.1709670126438141 7.2154340744018555 0 0 0
0.011167141608893871 1.4786216020584106 6.294808387756348 0 0 0
0.2248762995004654 -0.7436540126800537 7.8071699142456055 0 0 0
0.5128124952316284 -0.6335297226905823 7.693732738494873 0 0 0
0.08390339463949203 1.423730731010437 6.593609809875488 0 0 0
0.6320035457611084 -0.7245436310768127 7.647473335266113 0 0 0
-0.49359428882598877 1.4593831300735474 6.2310614585876465 0 0 0
-0.15545061230659485 0.9878955483436584 6.480132102966309 0 0 0
0.7015637755393982 0.8893089890480042 7.749416351318359 0 0 0
-0.14570631086826324 0.5509909987449646 7.408494472503662 0 0 0
0.2218519151210785 -0.3029039204120636 7.140993595123291 0 0 0
0.5457065105438232 1.4020154476165771 7.307774543762207 0 0 0
0.2538117468357086 1.447746992111206 6.688602447509766 0 0 0
0.20007699728012085 -0.2150173783302307 7.103364944458008 0 0 0
-0.9115167856216431 -0.8702124953269958 8.114761352539062 0 0 0
0.4460987150669098 1.4549646377563477 6.933987617492676 0 0 0
-1.2079590559005737 1.2028472423553467 7.230465412139893 0 0 0
0.024844733998179436 1.54023015499115 6.029760360717773 0 0 0
0.6204261183738708 -0.685025155544281 7.656261920928955 0 0 0
0.2380901724100113 -0.1547817438840866 7.088597774505615 0 0 0
0.5457065105438232 1.4020154476165771 7.307774543762207 0 0 0
-0.16298721730709076 1.4838941097259521 6.249851703643799 0 0 0
-0.09230231493711472 1.248584508895874 6.4093708992004395 0 0 0
0.13340486586093903 0.4913965165615082 7.308816432952881 0 0 0
-1.6828829050064087 1.6416782140731812 6.604014873504639 0 0 0
0.12768030166625977 0.28685954213142395 7.1550679206848145 0 0 0
-0.8287560343742371 -0.6879589557647705 8.116620063781738 0 0 0
-0.09877447783946991 -0.81707763671875 7.632052421569824 0 0 0
-0.20000199973583221 1.4692881107330322 6.300504207611084 0 0 0
-0.8752672076225281 -0.1665881723165512 8.196122169494629 0 0 0
0.27598002552986145 -0.20410200953483582 7.106475830078125 0 0 0
0.1607302576303482 1.1964080333709717 7.249324321746826 0 0 0
0.06021498143672943 1.5430997610092163 6.005914688110352 0 0 0
-0.317878782749176 0.26534518599510193 7.242685317993164 0 0 0
0.25788652896881104 1.5818694829940796 6.324290752410889 0 0 0
0.08309481292963028 -0.7647650241851807 7.864294528961182 0 0 0
-0.6037273406982422 1.6782084703445435 6.215719223022461 0 0 0
0.605833113193512 -0.6989090442657471 7.6316657066345215 0 0 0
-0.8359998464584351 -0.17467139661312103 8.13847541809082 0 0 0
-0.33200958371162415 1.284769058227539 6.3730950355529785 0 0 0
-0.2867218255996704 1.2559685707092285 6.345733642578125 0 0 0
0.08315366506576538 -0.3169615566730499 7.111142158508301 0 0 0
0.4557054042816162 0.13532766699790955 7.2284698486328125 0 0 0
-0.2226325273513794 0.12014393508434296 7.142233371734619 0 0 0
-0.8682251572608948 -0.47053784132003784 8.111352920532227 0 0 0
-0.5567441582679749 1.4347383975982666 6.283236503601074 0 0 0
-0.1962433010339737 0.1966676563024521 7.148751735687256 0 0 0
-0.6935659050941467 1.5097836256027222 6.225857734680176 0 0 0
-0.17355573177337646 0.544888436794281 7.413980484008789 0 0 0
0.22251766920089722 -0.3652923107147217 7.179702281951904 0 0 0
0.3642023503780365 -0.7435677647590637 7.731740474700928 0 0 0
-0.5328792333602905 1.4365496635437012 6.282745838165283 0 0 0
-0.006158669013530016 0.899692714214325 7.8064866065979 0 0 0
0.05736006423830986 1.6840558052062988 6.020103931427002 0 0 0
-0.8824381232261658 0.29850444197654724 8.16970157623291 0 0 0
-1.2499080896377563 1.3359445333480835 6.691194534301758 0 0 0
-0.6968418955802917 -0.4973045289516449 8.115398406982422 0 0 0
-0.4323936700820923 0.07537242770195007 7.249488353729248 0 0 0
0.25532129406929016 0.5781422257423401 7.476011753082275 0 0 0
-0.4303113520145416 -0.7334834337234497 7.978928565979004 0 0 0
