ply
format ascii 1.0
element vertex 701
property float x
property float y
property float z
property uchar red
property uchar green
property uchar blue
end_header
-1.5282953977584839 1.5482685565948486 6.654569149017334 104 134 172
0.18533293902873993 -0.5412692427635193 7.442681312561035 213 229 216
0.1617755889892578 -0.26166442036628723 7.236778259277344 87 93 89
-1.204506278038025 1.3830088376998901 6.775041103363037 193 198 192
-1.140930414199829 1.114692211151123 7.570372104644775 162 133 101
-0.9739966988563538 1.372334361076355 6.883037090301514 20 30 29
0.4693726897239685 -0.2950349450111389 7.365495681762695 183 195 175
0.5102079510688782 0.19632276892662048 7.422114372253418 39 56 86
-0.9510766863822937 -0.04212844744324684 8.379743576049805 107 103 102
-0.9236558675765991 1.3147120475769043 6.898063659667969 144 155 139
-0.932354748249054 -0.8175485134124756 8.326119422912598 110 98 98
-1.1549450159072876 1.283164620399475 6.915054798126221 169 171 168
-0.31282809376716614 -0.3059186339378357 7.379334926605225 177 168 163
-0.13537602126598358 -0.15396103262901306 7.248780250549316 169 182 175
-0.2076679766178131 0.4638451337814331 7.478423118591309 40 65 70
-0.3406166732311249 0.015244456939399242 7.318417072296143 52 66 67
0.4113548696041107 0.18633335828781128 7.348947048187256 97 113 126
0.42883116006851196 0.35592713952064514 7.466487884521484 31 52 83
0.2738164961338043 0.40553563833236694 7.404246807098389 82 102 109
0.11203060299158096 1.4469853639602661 6.752747058868408 163 173 165
0.05692239850759506 0.20233140885829926 7.255694389343262 132 149 143
-0.09627800434827805 1.247113585472107 6.525606632232666 166 190 200
-0.025247400626540184 -0.2134465128183365 7.229931354522705 204 210 198
-0.09554548561573029 1.100513219833374 6.56008768081665 66 102 124
-0.5747771263122559 -0.7363851070404053 8.21143913269043 72 69 78
-0.9310915470123291 1.5132877826690674 6.437679290771484 74 63 105
-0.6970981359481812 -0.5293461084365845 8.259193420410156 69 62 69
0.4575885832309723 1.1090185642242432 8.005441665649414 82 81 77
-0.2112484574317932 1.5014100074768066 6.395641803741455 132 119 126
-0.8079124689102173 0.9302996397018433 7.654737949371338 83 89 79
0.3627006709575653 0.34902966022491455 7.414000988006592 48 65 75
0.26830345392227173 -0.3538568913936615 7.325531005859375 190 206 179
-0.26620781421661377 0.05391746386885643 7.278504848480225 108 128 126
-0.26739317178726196 -0.15986619889736176 7.294208526611328 149 140 131
0.047601860016584396 0.17091518640518188 7.240911960601807 134 153 147
0.2459515780210495 0.3724004328250885 7.382379055023193 41 54 71
-0.06171626225113869 0.23780974745750427 7.272313594818115 141 161 162
-0.11800553649663925 1.1322135925292969 6.526672840118408 112 136 170
0.12829017639160156 -0.2109849601984024 7.228874206542969 177 187 163
-0.31781628727912903 -0.15759573876857758 7.30988883972168 186 194 181
-0.039972350001335144 -0.13046497106552124 7.216383934020996 165 167 153
-0.15077000856399536 -0.18987810611724854 7.2412848472595215 188 189 173
-1.2077597379684448 1.4180805683135986 6.754227638244629 46 49 54
0.4933774769306183 0.058819759637117386 7.368616104125977 46 54 77
0.2035190612077713 -0.10027524083852768 7.22619104385376 167 179 179
0.1733139157295227 0.15185591578483582 7.247819423675537 132 154 165
-0.2541995942592621 1.3911378383636475 6.437366008758545 54 78 122
0.50718754529953 -0.32645362615585327 7.470169544219971 183 185 171
0.17405584454536438 -0.46301954984664917 7.36297082901001 230 247 231
0.6189495921134949 -0.16446390748023987 7.4989237785339355 58 63 66
-0.9514881372451782 0.960759699344635 7.612159252166748 151 132 100
-0.15306033194065094 1.0918264389038086 6.544904708862305 27 45 91
-0.15082454681396484 1.3943219184875488 6.466785430908203 17 28 46
-0.22287213802337646 1.0353227853775024 7.564287185668945 70 91 96
0.1446157991886139 -0.3815267086029053 7.288991451263428 213 226 206
0.06342763453722 -0.5237739682197571 7.4115824699401855 226 243 235
-0.41285020112991333 0.38292938470840454 7.5358428955078125 129 139 131
-0.5963833928108215 1.6499359607696533 6.343907356262207 86 104 126
-0.046483565121889114 1.039553165435791 7.874185085296631 45 56 48
0.12862874567508698 0.3115359842777252 7.304542064666748 130 153 167
-0.7918004393577576 1.497822880744934 6.407571315765381 119 98 103
-0.975141704082489 0.9573257565498352 7.611738681793213 153 131 94
-0.0798693299293518 -0.7363858819007874 7.833123207092285 59 74 69
0.24222925305366516 0.006710503716021776 7.24176025390625 157 182 176
-0.031772613525390625 1.454102635383606 6.581740856170654 8 7 12
0.15259461104869843 0.16605089604854584 7.255343914031982 129 147 151
-0.20818911492824554 1.177465796470642 6.486637115478516 55 79 123
0.011713390238583088 1.7144261598587036 6.170000076293945 112 143 164
0.5228719711303711 1.2943414449691772 7.960370063781738 166 162 135
0.48084184527397156 0.318239688873291 7.492741584777832 38 47 76
-0.2015068084001541 -0.39606308937072754 7.352902412414551 208 201 191
9.027314808918163e-05 0.2001015990972519 7.2428998947143555 108 126 110
-0.011146020144224167 -0.23082414269447327 7.235485076904297 67 75 77
-0.26600757241249084 -0.018893374130129814 7.278947353363037 143 156 147
-0.34994712471961975 1.64545738697052 6.294559001922607 132 166 175
0.6241282224655151 -0.7947462201118469 7.8234663009643555 81 71 79
-0.8089516162872314 -0.6168545484542847 8.298284530639648 84 74 75
-1.6892216205596924 1.6956887245178223 6.706767559051514 148 158 150
-0.40043333172798157 -0.22379302978515625 7.387583255767822 173 151 137
-1.0623469352722168 1.439617395401001 6.630721569061279 67 65 89
0.5105814337730408 -0.08698002249002457 7.357429504394531 72 86 87
-0.3493955135345459 -0.17940984666347504 7.331053733825684 176 184 169
0.04247057065367699 -0.5376020073890686 7.443227767944336 224 235 227
-1.0198427438735962 1.434076189994812 6.6212263107299805 151 163 175
-0.29055148363113403 1.4909639358520508 6.469446182250977 87 85 98
-0.8288464546203613 -0.816280722618103 8.253222465515137 104 78 87
-0.10445071756839752 -0.4740413725376129 7.393448829650879 110 105 111
-0.1948680430650711 0.48753437399864197 7.495026111602783 98 110 98
-0.48646077513694763 0.22233593463897705 7.492600917816162 91 106 113
-0.938642680644989 1.319001317024231 6.890777587890625 182 183 175
-1.5153439044952393 1.4588558673858643 6.5939717292785645 95 102 121
0.5091756582260132 -0.1612738072872162 7.358420372009277 171 177 167
-0.4488275945186615 -0.12751278281211853 7.391648292541504 177 189 185
-1.1453028917312622 1.3221328258514404 6.890816688537598 49 57 59
-0.8928482532501221 1.2897924184799194 6.939359188079834 177 182 159
-0.2873461842536926 1.4569573402404785 6.4930901527404785 13 19 33
-0.4111122786998749 0.22094519436359406 7.413274765014648 149 164 159
-0.0038605942390859127 -0.05211351439356804 7.236411094665527 62 76 76
-0.024084659293293953 -0.4686708152294159 7.360316276550293 225 242 234
-0.8587622046470642 -0.4770737290382385 8.309020042419434 90 74 84
-0.958072304725647 1.4854161739349365 6.45266056060791 119 105 128
-1.2500377893447876 1.4268786907196045 6.77183723449707 61 58 79
-0.2559017837047577 1.5332615375518799 6.183176517486572 99 85 120
0.15463955700397491 -0.5575790405273438 7.476105690002441 223 240 224
-0.9172315001487732 0.49628183245658875 8.408767700195312 121 101 113
-0.03176477551460266 1.454294204711914 6.581732749938965 8 7 12
-1.2904690504074097 1.4930152893066406 6.544018745422363 46 48 99
-0.12048213928937912 1.548378825187683 6.133339881896973 87 69 121
-0.7389715909957886 1.3354485034942627 7.028004169464111 16 21 25
-1.0020391941070557 1.2357535362243652 7.296307563781738 227 240 231
-0.8063076734542847 0.5905322432518005 8.375385284423828 70 59 73
-1.1533864736557007 1.475315809249878 6.513318061828613 122 108 131
0.2791439890861511 -0.2694026529788971 7.271213531494141 205 217 193
0.4303159713745117 0.017250586301088333 7.309818744659424 81 95 108
-0.6088674664497375 1.496605396270752 6.360654830932617 156 163 171
0.19826918840408325 0.3944080173969269 7.3784074783325195 88 89 83
0.26489323377609253 0.7832456827163696 7.758821964263916 78 88 89
-0.004390975926071405 -0.16415096819400787 7.221917152404785 62 62 52
-0.11760007590055466 0.3242757320404053 7.3302130699157715 113 113 103
0.22104878723621368 0.5062212347984314 7.507347583770752 62 59 78
-0.33750638365745544 0.3674716353416443 7.4479217529296875 125 136 119
-1.760886549949646 1.6846442222595215 6.765969753265381 150 160 170
-1.1507158279418945 1.2990208864212036 6.908782482147217 41 55 58
-0.8915204405784607 -0.5173541903495789 8.343368530273438 104 91 98
-0.4926659166812897 0.23819121718406677 7.504354000091553 152 164 160
-0.8601568937301636 1.2866085767745972 6.952487468719482 174 178 155
0.29465651512145996 0.02888966165482998 7.2428107261657715 127 145 149
-0.8919034004211426 0.6180135011672974 8.400373458862305 86 74 94
-1.6541757583618164 1.7234818935394287 6.685396194458008 77 112 140
0.15080128610134125 -0.2463711053133011 7.241327285766602 203 219 206
-0.8245698809623718 1.3629310131072998 6.932562351226807 29 31 28
-1.6456772089004517 1.5356810092926025 6.705343246459961 55 58 93
-0.21396197378635406 -0.24260927736759186 7.287697792053223 152 132 131
0.4259728193283081 0.31499049067497253 7.43980598449707 94 115 146
-0.9155896902084351 1.5306835174560547 6.41790246963501 82 77 135
0.6911406517028809 0.7793018817901611 7.926810264587402 88 68 79
-0.9168255925178528 1.3080111742019653 6.915938377380371 41 49 52
-0.12284053862094879 0.7746523022651672 7.893786430358887 74 76 71
0.42623892426490784 0.3421279788017273 7.461174488067627 43 57 83
0.28696298599243164 -0.41178658604621887 7.35413932800293 236 244 233
-0.7614253759384155 1.289650797843933 7.034759044647217 167 171 156
-0.7985436320304871 1.2774423360824585 7.0062737464904785 120 123 114
0.5041785836219788 -0.764988899230957 7.868001461029053 125 111 110
-1.158981204032898 1.2906419038772583 6.889158725738525 173 186 177
0.30798378586769104 -0.12204942852258682 7.252633094787598 178 193 188
-0.06931915134191513 1.2958136796951294 6.530021667480469 164 191 198
0.5614168047904968 -0.14351509511470795 7.384631633758545 148 142 118
-0.6257010102272034 -0.8225476741790771 8.159797668457031 115 108 116
-0.8187123537063599 0.8998370170593262 7.61964750289917 63 70 62
-0.27971675992012024 0.4624100625514984 7.502223014831543 112 122 111
0.2555248737335205 -0.14490006864070892 7.221516132354736 190 206 196
-0.1261415183544159 -0.5371063351631165 7.4620890617370605 138 149 135
-1.203567385673523 1.3946088552474976 6.769881248474121 72 76 77
-0.37310224771499634 -0.26718977093696594 7.3630146980285645 179 152 135
-1.1140135526657104 0.9063427448272705 7.685920238494873 206 187 154
-0.4077322781085968 0.016251767054200172 7.357602119445801 130 128 116
0.6121082901954651 -0.003483830951154232 7.4668869972229 134 149 152
-0.7722212672233582 1.2986183166503906 7.013367652893066 175 186 172
0.007172628305852413 -0.19988492131233215 7.222811222076416 188 191 184
0.39792242646217346 0.3644390404224396 7.455941677093506 85 115 141
0.5152132511138916 -0.736473560333252 7.8584513664245605 113 87 86
-0.2860086262226105 0.33896932005882263 7.416026592254639 74 89 82
0.7552505135536194 -0.2704590857028961 7.80527400970459 84 74 73
0.04706244915723801 0.28185415267944336 7.29371452331543 55 75 74
-0.0018278347561135888 -0.5530024170875549 7.4561567306518555 215 236 217
0.3265196681022644 -0.36012977361679077 7.34045934677124 184 205 198
-0.21975740790367126 1.479495882987976 6.484564781188965 51 51 59
-0.6090993881225586 1.545477271080017 6.304810523986816 71 69 108
0.25520676374435425 1.041288137435913 8.07521915435791 73 68 74
0.5455669164657593 -0.1117732897400856 7.392117977142334 129 137 124
0.5277912616729736 0.17836563289165497 7.408411502838135 124 144 171
0.4544347822666168 0.05441221967339516 7.3392333984375 153 172 168
-0.12706750631332397 1.0914419889450073 6.549515724182129 36 44 65
0.1955917477607727 0.37584424018859863 7.359055995941162 39 55 71
-0.45942726731300354 1.4981261491775513 6.369311809539795 127 123 146
-0.8288464546203613 -0.816280722618103 8.253222465515137 104 78 87
0.24799293279647827 -0.40592169761657715 7.336531162261963 221 225 210
0.15862910449504852 -0.4737643599510193 7.368297100067139 193 216 210
0.7562206387519836 -0.8914254307746887 7.704512596130371 118 123 119
0.6189495921134949 -0.16446390748023987 7.4989237785339355 58 63 66
0.2603546977043152 0.15987886488437653 7.26913595199585 116 147 152
-0.06431631743907928 -0.38829585909843445 7.306137561798096 194 213 207
0.03683936223387718 -0.12918440997600555 7.221883296966553 122 108 95
0.1612568199634552 0.7115095853805542 7.736102104187012 47 51 62
-0.5698266625404358 -0.12225442379713058 7.524050712585449 83 81 95
-1.6924891471862793 1.5476047992706299 6.71131706237793 106 131 161
-0.4197200834751129 -0.12807758152484894 7.355647087097168 163 177 162
-0.23341040313243866 -0.4227534532546997 7.408647060394287 201 172 174
-1.6833014488220215 1.6358999013900757 6.713551998138428 70 96 121
0.2421981692314148 0.43888720870018005 7.447714805603027 43 57 70
-0.36691778898239136 0.07746447622776031 7.354311943054199 109 97 83
-0.0749150738120079 1.1914438009262085 6.538129806518555 157 182 187
-1.1301239728927612 1.4562885761260986 6.62950325012207 166 166 176
-0.6428952217102051 1.4547449350357056 6.537904262542725 123 143 144
0.685776948928833 -0.5941031575202942 7.8256306648254395 119 107 111
-0.6173528432846069 -0.7151221036911011 8.220462799072266 70 76 76
-0.3357539772987366 0.9866037964820862 7.648041248321533 153 164 160
-0.9132416248321533 1.3657699823379517 6.893916606903076 23 23 21
-1.0739402770996094 1.4551808834075928 6.623159408569336 167 164 183
-0.7403841018676758 1.2648613452911377 7.111851215362549 160 166 154
0.10351032763719559 0.28497976064682007 7.280883312225342 127 149 147
-0.21117210388183594 0.10428520292043686 7.275749683380127 153 165 165
-0.6211441159248352 1.525559425354004 6.304798126220703 53 51 91
0.005080522038042545 1.469395637512207 6.58635139465332 52 52 54
0.08634702116250992 0.22347068786621094 7.257862091064453 111 131 129
0.4896475374698639 0.03433094173669815 7.371513843536377 55 69 70
0.4005436301231384 1.0548105239868164 7.9958062171936035 59 49 57
-0.4889461398124695 -0.08684045076370239 7.4209065437316895 180 170 168
0.3947698771953583 0.07083948701620102 7.290269374847412 151 171 172
0.27247604727745056 -0.17962560057640076 7.244627475738525 168 180 156
-0.005890375003218651 0.4431699514389038 7.387517929077148 51 42 45
0.2943151891231537 1.5107096433639526 6.702493667602539 43 38 60
-1.082842230796814 1.24954092502594 7.214446544647217 233 245 243
0.007594145834445953 0.10171601176261902 7.229746341705322 124 144 135
0.6832041144371033 -0.7982971668243408 7.783883571624756 112 91 86
-0.9130720496177673 0.2743943929672241 8.39364242553711 80 78 83
-0.1743127405643463 -0.3344939351081848 7.303398609161377 86 97 99
-0.05899343267083168 -0.11375018954277039 7.214547634124756 90 91 83
-0.14328788220882416 -0.12293016165494919 7.23290491104126 161 174 167
0.19042202830314636 1.4835115671157837 6.675044059753418 153 127 140
-0.16450366377830505 0.46769872307777405 7.451689720153809 97 103 91
-0.013474071398377419 1.6678192615509033 6.1212239265441895 115 135 159
0.0426483228802681 -0.17032724618911743 7.210265636444092 143 120 106
0.4566597640514374 -0.21288421750068665 7.350830554962158 154 170 157
-1.5153439044952393 1.4588558673858643 6.5939717292785645 95 102 121
0.23290036618709564 0.35327890515327454 7.363884449005127 114 141 150
-0.1983269900083542 -0.4353678524494171 7.3831000328063965 211 185 170
-0.6048387885093689 1.5186107158660889 6.303986549377441 133 128 168
-0.16304773092269897 0.22024042904376984 7.294288158416748 118 128 130
0.17915213108062744 -0.5693843960762024 7.487998008728027 165 177 175
-0.42617952823638916 0.15138274431228638 7.397799968719482 74 77 66
-0.4696681797504425 0.27162203192710876 7.5009942054748535 141 165 175
-0.10313554108142853 -0.5309353470802307 7.441677093505859 230 247 237
-0.4614178538322449 -0.3008425831794739 7.482904434204102 178 166 154
0.7860680818557739 -0.010643420740962029 7.8168416023254395 93 80 87
-0.17150664329528809 -0.5513820648193359 7.507838726043701 223 235 221
-1.102522373199463 1.4412873983383179 6.655397891998291 65 54 62
0.010075395926833153 0.503879964351654 7.429878234863281 69 59 58
0.39824461936950684 1.1998929977416992 8.030970573425293 73 60 69
-0.07862953841686249 1.68880295753479 6.208052158355713 109 151 176
-0.5044262409210205 1.4600952863693237 6.633400917053223 102 96 122
-0.6107266545295715 -0.7998101711273193 8.244823455810547 121 109 113
0.08651670068502426 -0.18817710876464844 7.213751316070557 171 179 166
-0.1262965053319931 -0.5150983929634094 7.440774917602539 223 207 194
-0.2279791235923767 0.19008736312389374 7.301701545715332 145 168 162
-0.01858384720981121 0.05653371289372444 7.227861404418945 132 149 133
-0.7725449800491333 1.6475547552108765 6.4107184410095215 117 124 153
-0.3487333655357361 -0.1504397690296173 7.3268890380859375 196 205 184
0.6769222021102905 0.4486788809299469 7.879920959472656 44 32 52
-0.08444762229919434 0.032591313123703 7.217605113983154 125 142 134
-0.2502831518650055 1.095994234085083 6.553451061248779 135 160 182
-0.8089832663536072 0.9620910882949829 7.648714065551758 76 78 73
0.619872510433197 -0.6194562315940857 7.840474605560303 121 105 105
0.6228926777839661 -0.5984333157539368 7.827077865600586 86 76 77
-0.04986347630620003 0.39945051074028015 7.35863733291626 76 60 63
-1.21989107131958 1.2370667457580566 7.278252601623535 137 167 203
0.08851970732212067 -0.23404449224472046 7.216363906860352 195 209 184
-0.27946341037750244 1.2383759021759033 6.473117351531982 107 137 187
0.17203694581985474 1.4700137376785278 6.7695794105529785 142 156 159
-0.316491037607193 -0.22967711091041565 7.323345184326172 180 168 156
-0.5698266625404358 -0.12225442379713058 7.524050712585449 83 81 95
-0.023255664855241776 0.08954968303442001 7.221662998199463 137 155 133
-0.16814200580120087 -0.10461537539958954 7.2553019523620605 174 180 176
0.6700376868247986 -0.7368770837783813 7.8090691566467285 114 109 113
-0.47469982504844666 -0.19847089052200317 7.4369659423828125 173 156 140
-1.7719699144363403 1.458113193511963 6.695750713348389 105 132 149
0.34488919377326965 1.5124770402908325 6.751944065093994 63 66 75
-0.013592679053544998 0.42103949189186096 7.3648176193237305 48 48 38
-0.9213113784790039 1.335357666015625 6.897377967834473 93 98 94
-0.5792251229286194 1.5045464038848877 6.325980186462402 132 122 156
-0.7905751466751099 0.5429930686950684 8.396733283996582 99 88 102
0.198225200176239 -0.8246822953224182 7.94595193862915 125 106 108
-0.039742980152368546 1.6600282192230225 6.176668167114258 93 108 131
0.438597172498703 -0.4107050597667694 7.436730861663818 192 208 198
-0.4606516659259796 0.04907319322228432 7.407938480377197 130 105 101
-0.5963833928108215 1.6499359607696533 6.343907356262207 86 104 126
-0.13097955286502838 0.7515367269515991 7.94303560256958 58 66 68
-1.7012720108032227 1.6241284608840942 6.720789432525635 131 162 182
0.019268279895186424 -0.09904633462429047 7.2038068771362305 144 137 118
-1.229029893875122 1.438137412071228 6.741001129150391 161 178 188
0.05937311053276062 0.597059965133667 7.549407958984375 35 35 37
0.5165562629699707 -0.10054458677768707 7.3592400550842285 141 155 140
0.08637961000204086 0.06986967474222183 7.221662998199463 107 128 113
0.26205921173095703 -0.014008493162691593 7.225071430206299 179 197 185
-1.1104470491409302 1.3078080415725708 6.887790203094482 95 97 92
-1.7053381204605103 1.4274317026138306 6.684728145599365 141 150 147
-1.0588741302490234 1.7179957628250122 6.495002746582031 91 86 108
-0.620141863822937 1.5830391645431519 6.352351188659668 52 73 100
-0.601285457611084 1.478938341140747 6.366915225982666 45 38 45
0.1359969526529312 0.014739368110895157 7.209566116333008 127 140 131
0.2753625512123108 1.499361515045166 6.701451301574707 45 37 58
-0.512970507144928 0.22860519587993622 7.52067756652832 93 106 112
-0.8245698809623718 1.3629310131072998 6.932562351226807 29 31 28
-0.8517590165138245 1.4516956806182861 6.58330774307251 65 64 72
-0.599601686000824 1.2368162870407104 7.054790496826172 152 162 197
0.512665331363678 -0.13463900983333588 7.35617733001709 165 177 153
-1.07416832447052 1.3071401119232178 6.893248081207275 182 189 182
-0.24183882772922516 1.4925990104675293 6.437397003173828 79 71 86
-0.5014492869377136 0.2548311948776245 7.5202250480651855 113 132 149
0.438597172498703 -0.4107050597667694 7.436730861663818 192 208 198
-0.037843476980924606 0.26825574040412903 7.282451629638672 68 92 94
-0.7278320789337158 1.5957385301589966 6.391127586364746 74 86 86
0.7093896269798279 0.47276774048805237 7.8829874992370605 55 45 54
0.464121013879776 -0.3873007297515869 7.456568241119385 211 219 206
-0.2618895173072815 1.4751585721969604 6.454765319824219 36 36 34
0.16452443599700928 -0.3651331067085266 7.276096820831299 211 231 220
-1.1507158279418945 1.2990208864212036 6.908782482147217 41 55 58
0.10251838713884354 -0.5017791390419006 7.381901264190674 226 239 229
-0.6932145357131958 1.521280288696289 6.338836193084717 40 53 97
-0.027475127950310707 0.2161458134651184 7.248581409454346 115 135 134
-0.7614253759384155 1.289650797843933 7.034759044647217 167 171 156
0.1173720732331276 0.03425454720854759 7.206110000610352 128 149 144
-1.0580178499221802 1.4047468900680542 6.894043922424316 21 20 26
0.09671607613563538 0.17883002758026123 7.251129150390625 111 137 134
-0.21865038573741913 1.051700234413147 7.5535993576049805 84 99 96
-0.7094435095787048 1.5112203359603882 6.3587775230407715 189 182 189
0.450756698846817 1.3637661933898926 8.026307106018066 60 56 73
-0.10394713282585144 -0.2114676833152771 7.241983890533447 112 117 97
-0.049223896116018295 0.39919358491897583 7.354133129119873 76 60 63
-0.42590776085853577 0.3636261820793152 7.551491737365723 118 139 140
0.024908216670155525 0.5048712491989136 7.431863307952881 25 28 35
-0.17806902527809143 0.46073758602142334 7.470561981201172 66 83 77
-0.1310640424489975 0.9112398028373718 7.985172271728516 24 35 29
-0.5356720685958862 0.05115903541445732 7.474325180053711 63 55 78
0.24699975550174713 -0.3813748359680176 7.321149826049805 212 230 218
0.6140023469924927 0.09059842675924301 7.495150566101074 122 132 144
0.3996141850948334 -0.4557361304759979 7.451002597808838 218 235 219
-0.17965196073055267 0.7659759521484375 7.955043315887451 60 62 59
0.5990355610847473 1.0942089557647705 7.957935810089111 89 78 86
-0.8463340997695923 0.8822243809700012 7.633169651031494 82 87 80
0.07394487410783768 -0.5671142935752869 7.456920623779297 231 245 228
-0.036633580923080444 1.7148346900939941 6.206250190734863 112 142 180
-1.5472688674926758 1.6978689432144165 6.665419578552246 67 77 69
-1.486864447593689 1.4912832975387573 6.60714864730835 19 34 73
-0.16386714577674866 0.391744464635849 7.395096778869629 50 59 56
-0.3942773938179016 -0.12557388842105865 7.333807945251465 181 193 189
-10.042736053466797 -1.9753031730651855 21.81495475769043 80 122 98
-1.27864670753479 1.406490445137024 6.812841892242432 150 156 156
-0.2316390872001648 1.1029032468795776 6.545262336730957 207 236 254
-0.037843476980924606 0.26825574040412903 7.282451629638672 68 92 94
0.18552762269973755 0.1877664029598236 7.262240886688232 117 145 149
-1.659961462020874 1.465113878250122 6.650557518005371 80 105 127
-0.8006123900413513 0.8767789006233215 7.61373233795166 153 152 132
-0.6713007092475891 1.7626982927322388 6.389740943908691 91 86 116
-0.22471320629119873 1.5403438806533813 6.183039665222168 84 72 108
0.3970350921154022 -0.6745173335075378 7.905377388000488 88 78 89
-0.0799177959561348 1.4100579023361206 6.531138896942139 19 35 60
-0.155460387468338 0.4746357500553131 7.454992294311523 50 61 55
-0.18150204420089722 0.12184910476207733 7.264580249786377 153 171 171
0.16424909234046936 -0.5907363891601562 7.50751256942749 154 165 151
0.22545339167118073 -0.13789905607700348 7.249709129333496 189 204 197
0.5198312997817993 0.21542370319366455 7.425274848937988 121 153 176
-0.3754381537437439 -0.3779296875 7.452019691467285 210 200 190
0.31461256742477417 -0.5080304145812988 7.464879035949707 203 220 202
-0.7483223676681519 1.760694980621338 6.381096839904785 77 67 119
-0.6547420024871826 1.4731892347335815 6.527655601501465 152 167 188
-0.7819469571113586 -0.7896351218223572 8.259603500366211 91 82 85
-1.7012720108032227 1.6241284608840942 6.720789432525635 131 162 182
0.08542544394731522 1.4495283365249634 6.717652320861816 148 155 148
0.6674231886863708 1.3722373247146606 7.946730613708496 168 159 130
0.5152132511138916 -0.736473560333252 7.8584513664245605 113 87 86
-0.440158873796463 0.8420901298522949 8.275318145751953 83 71 73
-1.0295276641845703 1.2462857961654663 7.210297107696533 230 242 238
-0.06390503793954849 1.6950852870941162 6.190250396728516 110 128 148
-0.11350267380475998 1.4692341089248657 6.493072986602783 111 100 108
0.015354233793914318 -0.44936832785606384 7.324314117431641 202 213 205
0.9541268944740295 -0.6543201208114624 7.990113258361816 96 107 91
0.16852527856826782 -0.8448756337165833 7.969072341918945 120 104 107
-0.26652148365974426 1.3795701265335083 6.435016632080078 25 28 47
-0.24898292124271393 -0.4028664231300354 7.38082218170166 212 211 216
-0.44530004262924194 0.7778674364089966 8.22398567199707 93 74 80
-1.6350761651992798 1.4162672758102417 6.814549446105957 142 144 143
0.10184521973133087 -0.6143056750297546 7.55629825592041 176 176 168
-0.4346153438091278 0.1728438138961792 7.409853458404541 135 150 155
-0.7728477716445923 -0.5964454412460327 8.276374816894531 120 110 109
-1.1656526327133179 1.7216157913208008 6.561593532562256 98 94 111
0.4286789000034332 -0.6907462477684021 7.889413356781006 118 112 114
0.18785393238067627 1.4915070533752441 6.629148483276367 90 88 99
-0.5660473108291626 1.4879977703094482 6.336758613586426 171 176 195
-0.8643698692321777 1.3115423917770386 6.936715602874756 37 38 59
-0.7172366976737976 1.270632028579712 7.149011135101318 72 90 102
0.20183181762695312 1.4751273393630981 6.680914878845215 126 114 128
0.038429200649261475 1.4001516103744507 6.602485179901123 58 63 92
0.24709460139274597 0.4612237513065338 7.4558329582214355 31 37 49
-0.3312016427516937 -0.21516813337802887 7.334868431091309 108 103 97
-0.37022843956947327 0.3626555800437927 7.500678539276123 82 100 104
-1.099504828453064 1.4505841732025146 6.618468761444092 159 171 185
0.2883656322956085 1.1363050937652588 8.023542404174805 65 64 69
0.8252368569374084 -0.77907794713974 7.759759902954102 135 138 117
-0.3256250321865082 -0.4745263159275055 7.507119655609131 209 190 175
0.40445682406425476 1.2182954549789429 8.013181686401367 63 45 45
-0.18099884688854218 1.0614981651306152 6.5277533531188965 110 148 195
-1.0756665468215942 1.3580902814865112 6.874131202697754 22 23 25
-0.563147783279419 1.5259660482406616 6.269707679748535 41 47 99
-0.7905751466751099 0.5429930686950684 8.396733283996582 99 88 102
0.31301215291023254 -0.5322025418281555 7.502920627593994 216 227 210
0.7800641655921936 -0.48159119486808777 7.780739784240723 103 94 97
0.6774672865867615 -0.46826115250587463 7.825945854187012 111 94 102
-0.013592679053544998 0.42103949189186096 7.3648176193237305 48 48 38
0.40534815192222595 -0.17893601953983307 7.313608646392822 183 199 186
0.25071102380752563 -0.025752395391464233 7.214349746704102 135 156 147
0.33910834789276123 -0.7803753614425659 7.932271480560303 97 81 81
-0.3472170829772949 1.472233772277832 6.460050582885742 47 46 42
-0.12612639367580414 1.0720059871673584 6.557032585144043 22 43 90
-0.7728880643844604 1.637718915939331 6.417657852172852 136 170 197
-1.7858878374099731 1.7122220993041992 6.7441558837890625 132 205 255
0.4244668185710907 -0.2538203299045563 7.343488693237305 173 189 178
-0.18249070644378662 0.1762273609638214 7.263759613037109 156 173 167
0.6189495921134949 -0.16446390748023987 7.4989237785339355 58 63 66
-0.7664868235588074 -0.6838802099227905 8.273690223693848 93 91 92
-0.3754381537437439 -0.3779296875 7.452019691467285 210 200 190
-0.875950038433075 0.8983404040336609 7.6626996994018555 154 151 136
-1.1831190586090088 1.4172941446304321 6.752267360687256 110 120 132
0.23013289272785187 0.39162737131118774 7.3888421058654785 106 120 120
-0.7977555394172668 1.7352638244628906 6.420729637145996 84 85 116
-0.5721797347068787 -0.08151433616876602 7.512609481811523 138 114 110
0.5438805818557739 0.4787400960922241 7.815185546875 21 27 43
0.27395761013031006 -0.0013703503645956516 7.247025012969971 146 162 161
0.19233280420303345 -0.0903962105512619 7.226373672485352 71 82 86
-0.894084095954895 1.2973239421844482 6.92405891418457 74 98 98
0.3507755696773529 0.11881056427955627 7.299147129058838 132 151 155
-0.9113330245018005 0.04045348986983299 8.359469413757324 76 77 72
0.43671542406082153 1.3135398626327515 7.990886211395264 53 44 47
0.056234732270240784 -0.5797284245491028 7.478888511657715 151 163 163
0.19998328387737274 -0.8601946830749512 7.933690071105957 126 107 113
0.6048406362533569 -0.14829833805561066 7.461710453033447 132 125 106
-0.6254757642745972 1.5899083614349365 6.331158638000488 38 51 68
-1.0483226776123047 1.3026140928268433 6.894608497619629 140 140 138
-0.4404989778995514 0.11894484609365463 7.393050670623779 116 103 97
0.20590108633041382 0.1684965193271637 7.273362159729004 113 133 144
-0.6130707859992981 1.4580200910568237 6.5156474113464355 43 49 49
0.8335984349250793 -0.8289279937744141 7.744446277618408 123 126 105
0.3732995390892029 1.5668613910675049 6.751040458679199 124 133 138
0.7041418552398682 -0.5557485818862915 7.820577144622803 125 106 108
-0.016393247991800308 0.3463771343231201 7.315120697021484 73 63 62
0.043394722044467926 1.3482471704483032 6.564610004425049 60 85 125
-0.2505408227443695 1.2092278003692627 6.467540740966797 91 122 168
-0.4876953363418579 0.2579324543476105 7.518138408660889 148 166 180
0.685776948928833 -0.5941031575202942 7.8256306648254395 119 107 111
-0.31230196356773376 1.280667781829834 6.4832000732421875 101 138 182
0.6536851525306702 -0.759202778339386 7.806057453155518 105 89 92
-0.2922075688838959 1.5423744916915894 6.226851463317871 92 74 116
-0.11291995644569397 1.0855309963226318 7.451155185699463 150 154 127
-0.35699740052223206 0.48858603835105896 7.60089635848999 67 82 89
-0.24077874422073364 -0.5253859758377075 7.531570911407471 137 146 143
-0.40271705389022827 1.4715567827224731 6.470507621765137 94 93 111
0.33861616253852844 -0.36975738406181335 7.328596591949463 223 242 240
-0.8794068098068237 1.1425011157989502 7.69085168838501 54 49 56
-0.5382318496704102 1.6381118297576904 6.329936504364014 44 72 93
-0.5844096541404724 0.0490829199552536 7.5357208251953125 135 125 126
-0.30617886781692505 0.006803009193390608 7.291170120239258 83 95 95
0.7566837668418884 -0.24819545447826385 7.811483383178711 111 95 105
-0.2581406533718109 1.3404871225357056 6.443933486938477 41 76 106
0.24462631344795227 0.5210473537445068 7.510180950164795 31 26 32
0.32229191064834595 -0.7951094508171082 7.903410911560059 107 93 92
0.28541138768196106 1.4677009582519531 6.828676223754883 137 140 149
0.26208847761154175 1.0769215822219849 8.03469467163086 74 64 73
-0.20927777886390686 0.535279393196106 7.539635181427002 96 99 92
0.6828563213348389 -0.4379495680332184 7.815866947174072 85 80 76
-1.183586597442627 1.327146053314209 6.861776351928711 134 139 135
-0.12188546359539032 -0.07225290685892105 7.223097801208496 119 135 132
-0.6905016899108887 1.424386978149414 6.966784477233887 123 126 145
-0.6122509241104126 1.6915043592453003 6.345247268676758 96 111 116
-0.15228155255317688 -0.786926805973053 7.901773929595947 108 109 113
0.5971712470054626 0.20153003931045532 7.528183460235596 96 123 134
-0.4239487648010254 0.07948610931634903 7.371077060699463 130 121 122
-0.23971639573574066 1.1397020816802979 6.524057388305664 152 182 216
0.5102079510688782 0.19632276892662048 7.422114372253418 39 56 86
-0.2527628540992737 -0.3932315707206726 7.396589756011963 211 211 213
0.20310279726982117 -0.5177800059318542 7.430220127105713 213 230 211
-1.0633753538131714 1.3704622983932495 6.890951633453369 29 32 25
-0.47743475437164307 0.3341132402420044 7.550384521484375 130 147 165
-0.7248741388320923 1.2896724939346313 7.087106227874756 107 120 129
0.06752572953701019 0.35399413108825684 7.351789951324463 83 67 70
0.3732995390892029 1.5668613910675049 6.751040458679199 124 133 138
0.5372068285942078 -0.13986755907535553 7.388929843902588 163 172 155
-0.4517945349216461 0.09655792266130447 7.398284912109375 119 104 97
0.0732177272439003 -0.7392959594726562 7.998019218444824 48 38 47
-0.049091774970293045 -0.5110362768173218 7.411930084228516 132 156 158
-0.19216388463974 0.18820343911647797 7.291888236999512 117 137 135
-0.07739105820655823 0.31795215606689453 7.308244228363037 117 110 104
0.3249146342277527 1.0437004566192627 8.038044929504395 79 68 84
-1.421401858329773 1.712428092956543 6.634538173675537 44 43 85
-0.6130707859992981 1.4580200910568237 6.5156474113464355 43 49 49
0.025695478543639183 1.4418329000473022 6.601648807525635 19 23 32
-0.3312016427516937 -0.21516813337802887 7.334868431091309 108 103 97
-0.08753885328769684 -0.4050440788269043 7.309448719024658 196 212 199
0.061525680124759674 1.6742980480194092 6.145437240600586 77 96 113
0.16009867191314697 0.4686717987060547 7.441024303436279 69 72 77
-0.06425635516643524 1.4865014553070068 6.472873687744141 84 81 88
0.21113060414791107 -0.3065654933452606 7.273361682891846 174 194 185
-0.38551145792007446 1.75668466091156 6.269089221954346 85 80 103
-0.48410409688949585 1.488879680633545 6.381010055541992 158 171 188
-0.0793260782957077 0.9253966808319092 7.9154510498046875 88 78 68
0.9207996726036072 -0.8996421098709106 7.8663434982299805 188 192 169
-0.7798525094985962 1.4201369285583496 7.01392126083374 76 78 75
0.6226722002029419 -0.8511815071105957 7.738325119018555 152 148 119
0.7329777479171753 -0.39528965950012207 7.799642086029053 113 104 109
-0.835892379283905 0.9986820816993713 7.68026876449585 50 57 50
-0.5040996074676514 1.565536618232727 6.292907238006592 36 44 67
0.2036248743534088 1.4891172647476196 6.6801252365112305 92 74 90
-0.0044311899691820145 0.3491935431957245 7.3297038078308105 66 67 71
-0.6332952380180359 -0.6763720512390137 8.242156028747559 71 65 79
-0.26543527841567993 0.5296886563301086 7.561004161834717 87 97 88
0.26106467843055725 0.49219366908073425 7.498455047607422 60 64 65
-0.10320431739091873 1.067383050918579 6.556209087371826 32 50 88
-0.2561960220336914 1.498708724975586 6.3902812004089355 112 104 115
-0.25458917021751404 0.04189328849315643 7.291580677032471 163 169 167
-1.1403931379318237 1.3093210458755493 6.905081272125244 216 212 209
-1.6833014488220215 1.6358999013900757 6.713551998138428 70 96 121
0.1939457803964615 1.3779658079147339 7.137344837188721 174 189 186
0.32471778988838196 0.13278689980506897 7.274541854858398 125 153 167
-1.1919105052947998 1.4111770391464233 6.793501853942871 30 35 31
-0.7644192576408386 1.4395390748977661 6.801945209503174 148 142 152
0.024570362642407417 -0.22454851865768433 7.245988368988037 183 196 187
-0.10895662009716034 0.3408708870410919 7.342433929443359 70 65 69
-0.612433671951294 1.4462252855300903 6.532299518585205 176 174 179
0.7546550035476685 -0.8803459405899048 7.737062454223633 143 143 115
-0.40105411410331726 0.6628430485725403 8.072620391845703 40 40 42
-1.2590603828430176 1.3926732540130615 6.803535461425781 47 43 44
0.16386862099170685 -0.03761834651231766 7.214225769042969 161 173 163
0.576021134853363 -0.795653760433197 7.838969707489014 91 80 84
-0.4574212431907654 0.3023301959037781 7.508271217346191 135 160 165
-0.054254405200481415 0.5404329895973206 7.492703437805176 71 71 61
-0.8172051310539246 0.6313203573226929 8.37995719909668 89 83 95
0.6762169003486633 0.8364387154579163 7.9093194007873535 78 73 80
-0.6214408874511719 0.7436025738716125 8.34060001373291 72 64 62
-0.1311386227607727 1.5334153175354004 6.296603202819824 126 121 143
0.2630365490913391 1.6304470300674438 6.430117130279541 126 140 175
0.4450211226940155 1.2466832399368286 7.990575313568115 49 46 41
0.6637027263641357 -0.6479867100715637 7.813407897949219 113 102 98
-0.32709693908691406 -0.004726727493107319 7.306527137756348 159 174 169
0.561346709728241 -0.6895431876182556 7.836004257202148 90 85 89
0.5175882577896118 -0.7024477124214172 7.867237567901611 106 85 90
-0.5412696003913879 -0.7187719345092773 8.207969665527344 104 90 89
-0.9739966988563538 1.372334361076355 6.883037090301514 20 30 29
0.4695225954055786 -0.34820136427879333 7.419206142425537 173 183 174
0.8062359690666199 -0.46443161368370056 7.807651519775391 105 89 102
-1.0849019289016724 1.4624041318893433 6.602096080780029 133 130 149
-0.13688336312770844 0.5613315105438232 7.564296245574951 74 71 62
0.5060446858406067 0.26094743609428406 7.44852352142334 102 109 125
0.6457246541976929 1.4158505201339722 7.75339412689209 75 79 91
-0.48410409688949585 1.488879680633545 6.381010055541992 158 171 188
-0.2279791235923767 0.19008736312389374 7.301701545715332 145 168 162
-1.2103222608566284 1.2760604619979858 6.932990550994873 154 165 157
-0.7609980702400208 -0.8310781121253967 8.262765884399414 99 94 98
0.07713748514652252 1.542649269104004 6.24253511428833 144 127 135
0.8309179544448853 -0.6193297505378723 7.771820068359375 107 102 98
0.5773975849151611 1.1543335914611816 7.987676620483398 51 51 59
0.09671607613563538 0.17883002758026123 7.251129150390625 111 137 134
-0.10262036323547363 -0.17963263392448425 7.238854885101318 174 185 179
0.6125092506408691 -0.25784385204315186 7.503062725067139 152 135 128
0.7521466016769409 -0.6001945734024048 7.790546417236328 126 117 122
0.47335681319236755 -0.6636171340942383 7.864893913269043 121 116 112
-0.30513501167297363 0.25306063890457153 7.350752353668213 105 114 113
0.6086460947990417 0.12469551712274551 7.508050918579102 138 167 183
0.316508948802948 1.4448444843292236 6.902310371398926 93 101 120
0.5061059594154358 0.38468050956726074 7.5571136474609375 70 83 117
-0.37649527192115784 1.4725747108459473 6.456775188446045 70 75 79
0.37235167622566223 -0.21232976019382477 7.29213285446167 181 199 187
0.228010892868042 1.3992280960083008 7.059881687164307 186 199 192
-0.5140910744667053 1.4088211059570312 6.775387763977051 186 198 194
-1.1899921894073486 1.3015813827514648 6.900223731994629 197 194 185
-0.4120502471923828 1.4820188283920288 6.456323146820068 154 156 181
-1.773239254951477 1.7116007804870605 6.801803112030029 154 158 161
-0.43804818391799927 0.9742244482040405 7.482782363891602 90 120 120
0.48580825328826904 0.04641779139637947 7.336287498474121 138 134 122
-0.7410613298416138 -0.7106283903121948 8.234774589538574 74 71 82
0.07522767037153244 -0.49536818265914917 7.379222869873047 215 227 213
-0.7890753149986267 0.9800146222114563 7.650012016296387 15 30 37
-0.8332005739212036 0.7953155040740967 8.386670112609863 87 68 72
0.060664474964141846 0.3086777627468109 7.280208587646484 104 99 95
0.060664474964141846 0.3086777627468109 7.280208587646484 104 99 95
-0.027475127950310707 0.2161458134651184 7.248581409454346 115 135 134
0.2459297478199005 1.444702386856079 6.857213973999023 132 143 161
-0.0825001671910286 0.35475775599479675 7.345938682556152 79 73 61
0.5839855670928955 -0.8332402110099792 7.828420639038086 87 75 77
0.32203447818756104 -0.5443437695503235 7.521792888641357 147 164 158
0.5193677544593811 1.4633201360702515 7.374298572540283 105 102 113
-0.8032544255256653 -0.776348352432251 8.300564765930176 85 75 83
-0.08444762229919434 0.032591313123703 7.217605113983154 125 142 134
0.24778006970882416 1.0617687702178955 8.055034637451172 62 60 61
-0.46375614404678345 1.4498661756515503 6.404696464538574 128 135 145
0.6613819599151611 -0.7726283669471741 7.804442882537842 77 66 80
-0.4027150571346283 -0.23630139231681824 7.4035186767578125 178 153 148
-1.1394115686416626 1.4304168224334717 6.669315814971924 57 55 66
-0.8736559152603149 1.4794151782989502 6.499740123748779 154 145 172
-1.2151172161102295 1.3365075588226318 6.8338236808776855 139 148 145
0.4371293783187866 -0.7165802717208862 7.889068603515625 81 78 85
0.5773975849151611 1.1543335914611816 7.987676620483398 51 51 59
0.15394169092178345 1.494329571723938 6.559031963348389 130 114 125
0.4753010869026184 -0.40416643023490906 7.475852966308594 171 169 156
-0.15810807049274445 1.0581823587417603 6.520528793334961 103 126 168
0.497881144285202 -0.06628669798374176 7.3682780265808105 159 144 115
-0.8370094895362854 1.3444912433624268 6.9321699142456055 89 93 94
-0.9351682662963867 -0.2114146649837494 8.368494987487793 98 86 96
-0.8020277619361877 0.9964552521705627 7.670648574829102 53 59 55
0.21130302548408508 -0.4494118392467499 7.362702369689941 218 234 223
-0.21839669346809387 1.0210975408554077 6.586491107940674 182 208 241
0.3872247338294983 1.0420624017715454 8.040970802307129 67 60 68
-0.04905494302511215 1.4529106616973877 6.533636569976807 115 128 108
-0.5050461888313293 1.4996974468231201 6.2668280601501465 140 138 160
-0.8037790060043335 -0.3436921238899231 8.300390243530273 109 93 96
0.13540033996105194 -0.4634048342704773 7.348590850830078 197 208 194
-1.222685694694519 1.2845836877822876 7.017690181732178 78 82 93
-0.12502384185791016 -0.1945008486509323 7.237337589263916 163 175 165
0.21431364119052887 0.44186338782310486 7.419386386871338 68 69 73
0.22737908363342285 0.463516503572464 7.438779830932617 62 64 76
-0.8823766708374023 0.13105911016464233 8.336776733398438 107 94 101
0.1316613107919693 -0.6028037667274475 7.541705131530762 220 225 205
-0.2370821237564087 1.4163402318954468 6.449723720550537 45 50 72
0.245694100856781 0.7955012321472168 7.73081111907959 105 105 93
0.512065589427948 -0.1747986227273941 7.35391902923584 129 144 139
-0.4740089178085327 -0.2257741242647171 7.447534084320068 183 170 153
0.011296626180410385 1.5041650533676147 6.408479690551758 107 99 120
0.08542544394731522 1.4495283365249634 6.717652320861816 148 155 148
0.22545339167118073 -0.13789905607700348 7.249709129333496 189 204 197
-0.6797745823860168 -0.764040470123291 8.252923011779785 118 107 111
0.5102918744087219 1.1683121919631958 7.997611045837402 59 56 63
0.16386862099170685 -0.03761834651231766 7.214225769042969 161 173 163
-0.5027830004692078 1.4851760864257812 6.346174716949463 62 56 70
-0.15834778547286987 1.0051355361938477 6.599462032318115 122 144 191
-0.1932901293039322 -0.16279537975788116 7.253047943115234 172 154 142
-0.8961803913116455 -0.8473817110061646 8.405755043029785 90 79 77
0.25857511162757874 1.4742830991744995 6.8155694007873535 133 142 151
-0.5544211268424988 0.16941821575164795 7.530690670013428 150 169 176
0.45480355620384216 1.4826788902282715 7.070000171661377 131 120 137
0.02518787980079651 1.5656052827835083 6.134273052215576 146 137 164
0.5615444779396057 1.49148690700531 7.398799896240234 54 50 73
0.42233914136886597 -0.6692792773246765 7.902832508087158 101 86 89
-0.9081729650497437 -0.6580922603607178 8.353878021240234 74 74 82
-0.09404002130031586 1.2704004049301147 6.526756286621094 33 35 48
-1.7193769216537476 1.6762999296188354 6.747024059295654 96 96 98
-0.05398869514465332 0.42162013053894043 7.389059066772461 93 73 74
-0.7701553702354431 0.770520031452179 8.375106811523438 80 65 68
0.2812346816062927 -0.20847336947917938 7.241515636444092 199 209 201
0.16400368511676788 1.2203314304351807 7.398082256317139 190 198 175
0.26245346665382385 1.6092033386230469 6.438190937042236 41 52 98
-0.05115477740764618 0.55830979347229 7.502893924713135 33 34 38
-0.47987544536590576 0.19824407994747162 7.43900728225708 138 162 174
-0.2611595392227173 -0.5522404313087463 7.565158843994141 158 177 175
-0.1490117907524109 -0.5061284899711609 7.484313011169434 196 182 181
0.45404255390167236 -0.7593280673027039 7.853553771972656 103 83 82
-0.7703580856323242 -0.7744951844215393 8.274450302124023 111 100 108
-0.2920418381690979 1.2779756784439087 6.4623260498046875 77 105 152
-0.43580371141433716 -0.23379768431186676 7.412824630737305 173 150 134
0.4594769775867462 1.1294615268707275 7.983153343200684 71 57 74
0.08475518226623535 -0.3233962953090668 7.247049331665039 186 204 192
-0.20013795793056488 0.20015820860862732 7.29070520401001 144 162 164
-0.07117046415805817 -0.262860506772995 7.2604475021362305 187 201 184
-0.7066685557365417 1.5369783639907837 6.3428425788879395 67 79 119
-0.17717237770557404 0.5558468699455261 7.568397521972656 37 46 45
-0.3699204921722412 -0.8523566722869873 8.173012733459473 116 103 113
0.22679248452186584 -0.3726862072944641 7.317226886749268 186 198 178
0.371663898229599 -0.7589459419250488 7.889981269836426 88 72 75
-0.5428812503814697 1.462212324142456 6.3999199867248535 162 174 170
-0.7812668085098267 0.8269914984703064 7.6468610763549805 154 157 136
0.06623774766921997 0.43677186965942383 7.344718933105469 67 58 63
0.21442179381847382 -0.8180165886878967 7.956082344055176 99 88 86
-0.7631218433380127 0.8499462604522705 7.636695384979248 146 150 133
-1.2760032415390015 1.3630034923553467 6.830689430236816 180 186 174
-0.26136383414268494 -0.2561112642288208 7.313762187957764 152 135 127
-0.4411942958831787 0.07665442675352097 7.3970818519592285 84 71 78
-0.811663806438446 0.3644479215145111 8.355777740478516 81 70 74
0.26060110330581665 0.5896270871162415 7.630724906921387 32 35 44
0.7938541769981384 -0.13085411489009857 7.828310966491699 81 66 69
0.6119050979614258 -0.5429821014404297 7.84922981262207 75 69 73
-0.1725643426179886 0.501198947429657 7.4943366050720215 46 56 47
0.14351698756217957 -0.7475652098655701 7.9783854484558105 61 55 59
-0.7905751466751099 0.5429930686950684 8.396733283996582 99 88 102
-0.5257368087768555 1.6604427099227905 6.331722259521484 79 100 131
-0.780693531036377 0.480087548494339 8.34170913696289 88 83 90
0.011148806661367416 -0.1821383684873581 7.219290733337402 79 85 85
-0.5616548657417297 0.08329670876264572 7.501723289489746 86 87 89
0.08812829107046127 0.3534840941429138 7.3302788734436035 83 87 86
0.7963680028915405 -0.42819541692733765 7.821238994598389 113 101 103
0.27697449922561646 1.0531420707702637 7.993973255157471 63 53 52
0.6355798244476318 1.262266755104065 7.911046981811523 131 125 111
-1.2413501739501953 1.3977625370025635 6.762681007385254 147 153 139
0.45029935240745544 -0.6171663403511047 7.900538444519043 111 91 93
-0.8051812052726746 0.5076870322227478 8.366499900817871 73 71 82
-0.4426046907901764 0.2555803954601288 7.46735143661499 138 158 169
-0.6895638108253479 1.648311734199524 6.384480953216553 115 153 162
-0.08332119882106781 0.7855486273765564 7.907680511474609 44 49 52
0.12289252877235413 1.5809849500656128 6.116279602050781 105 98 116
-0.5703946948051453 0.779742419719696 8.311087608337402 72 58 58
0.5418367981910706 0.06272702664136887 7.408519268035889 123 132 129
-0.08192099630832672 0.012882751412689686 7.224997043609619 132 149 139
0.4382549822330475 1.1509625911712646 8.02841567993164 84 80 81
-0.5082441568374634 1.4561631679534912 6.429029941558838 56 54 67
-0.8031396269798279 -0.5701521635055542 8.285470008850098 111 103 100
0.4698399305343628 -0.3686516582965851 7.452727317810059 198 215 199
-0.6571393609046936 1.4382632970809937 6.832821369171143 103 100 111
-1.2163070440292358 1.3785017728805542 6.814450740814209 157 162 140
-0.7703580856323242 -0.7744951844215393 8.274450302124023 111 100 108
0.6015465259552002 -0.05545493960380554 7.422389030456543 98 94 85
0.17811734974384308 1.6493816375732422 6.280109882354736 91 108 180
-1.0011510848999023 1.4816913604736328 6.49267578125 155 153 166
-0.8104353547096252 1.440850019454956 6.757235050201416 112 106 116
0.4562782645225525 -0.42613622546195984 7.476590633392334 209 225 215
-0.2776614725589752 0.1954578012228012 7.342009544372559 88 72 73
