ply
format ascii 1.0
element vertex 699
property float x
property float y
property float z
property uchar red
property uchar green
property uchar blue
end_header
-2.167020320892334 -0.8293854594230652 5.525812149047852 122 93 77
-1.3687938451766968 -0.7673923969268799 5.63122034072876 199 158 128
-2.863394021987915 -1.1338956356048584 5.444807052612305 34 30 21
-1.8556957244873047 -1.042044758796692 5.627259254455566 119 81 62
-1.8779650926589966 -1.1273044347763062 5.640644550323486 144 110 85
-3.36944842338562 -0.8287641406059265 5.348262786865234 181 144 115
-2.282912254333496 -1.8196487426757812 4.878875255584717 87 25 32
-2.1783599853515625 -0.9990010261535645 5.572200298309326 119 82 65
-1.0637147426605225 -1.9583264589309692 5.133210182189941 135 21 21
-2.593398332595825 -0.9850968718528748 5.504382610321045 107 77 66
-1.3687938451766968 -0.7673923969268799 5.63122034072876 199 158 128
-2.1947898864746094 -0.8390622138977051 5.525267124176025 134 102 89
-0.30446764826774597 -0.2973128855228424 5.625738143920898 179 149 125
-2.0149993896484375 -0.9143912196159363 5.574534893035889 114 87 72
-0.6768015623092651 -0.45692190527915955 5.634256362915039 188 156 133
-1.6994884014129639 -1.1284207105636597 5.670154094696045 165 128 99
-3.1790881156921387 -0.720130443572998 5.351834297180176 194 162 139
-0.8140826225280762 -0.5475500822067261 5.639684200286865 172 144 123
-1.2309962511062622 -0.5454957485198975 5.592982769012451 131 94 74
-3.4583756923675537 -0.8053799271583557 5.3336501121521 205 175 151
-1.9662411212921143 -2.9963467121124268 6.03117036819458 21 34 43
-0.7496915459632874 -0.9481560587882996 5.752009391784668 194 162 141
-2.6090481281280518 -0.6346681118011475 5.414768218994141 128 95 80
-2.6731553077697754 -0.5343746542930603 5.378871917724609 141 106 87
-1.8419090509414673 -0.22384914755821228 5.43103551864624 154 120 101
-0.8640109896659851 -1.9733259677886963 5.189005374908447 3 15 4
-1.8746166229248047 -1.1079825162887573 5.639199256896973 90 61 49
-1.8226549625396729 -0.8781092166900635 5.589727401733398 112 80 57
-2.0497982501983643 -0.8153676986694336 5.547987461090088 173 143 119
-1.5986926555633545 -1.1051620244979858 5.662733554840088 161 121 96
-2.808765172958374 -1.7893667221069336 4.740478992462158 8 169 76
-2.1238856315612793 -0.8501715660095215 5.548183917999268 197 163 136
-0.7943639755249023 -1.964179277420044 5.208369731903076 189 201 189
-2.0102975368499756 -0.9100053906440735 5.574324131011963 91 66 56
-1.402608871459961 -0.7795852422714233 5.617127418518066 187 146 116
-1.2553178071975708 -0.6800491213798523 5.616967678070068 106 74 58
-2.27958607673645 -1.7940748929977417 4.903568267822266 108 18 20
-0.8166348338127136 -1.9321776628494263 5.225860595703125 1 18 3
-3.3214805126190186 -0.6784090399742126 5.3212571144104 150 112 93
-3.1673710346221924 -0.8757055997848511 5.392426013946533 125 88 69
-0.4553166329860687 -0.36418086290359497 5.640274524688721 188 158 134
-3.3214805126190186 -0.6784090399742126 5.3212571144104 150 112 93
-1.2277454137802124 -1.1462604999542236 5.726631164550781 157 115 93
-0.7571457624435425 -1.9831339120864868 5.205258369445801 191 203 191
-1.7298760414123535 -0.9726459383964539 5.623266696929932 96 64 46
-1.4471644163131714 -0.9739969968795776 5.67529296875 121 89 68
-1.5569249391555786 -1.860793948173523 5.066256523132324 41 25 15
-1.402608871459961 -0.7795852422714233 5.617127418518066 187 146 116
-2.892003059387207 -1.1230361461639404 5.444351673126221 207 118 88
-0.542686402797699 -0.6395142078399658 5.690794467926025 192 160 139
-0.997468113899231 -1.9342621564865112 5.171837329864502 185 196 174
-0.5513765215873718 -0.8863551616668701 5.736929893493652 104 81 67
-1.8296313285827637 -1.1837775707244873 5.616062164306641 54 43 39
-1.8100804090499878 -0.8155940771102905 5.574694633483887 109 81 68
-0.6852449774742126 -2.013686180114746 5.2022809982299805 4 21 13
-1.7159758806228638 -1.1373183727264404 5.666849613189697 169 131 108
-1.1284701824188232 -0.7999663352966309 5.668644905090332 186 152 127
-2.799023389816284 -0.48690202832221985 5.345483779907227 197 163 138
-0.41457274556159973 -0.993911862373352 5.800013065338135 207 184 166
-3.031550407409668 -0.6925486922264099 5.368932247161865 195 164 136
-0.5389184951782227 -1.073607087135315 5.786415100097656 153 122 104
-1.2232418060302734 -0.7854688167572021 5.640937328338623 96 67 49
-2.9343132972717285 -1.7995771169662476 4.699673175811768 175 222 224
-1.3165302276611328 -1.0990434885025024 5.705977439880371 114 77 58
-1.3237454891204834 -1.1714268922805786 5.7194294929504395 44 29 22
-0.931229293346405 -1.9666491746902466 5.172098159790039 206 211 191
-2.1490535736083984 -1.821401834487915 4.920421123504639 102 11 17
-2.3476572036743164 -1.806506872177124 4.87409782409668 170 206 232
-2.344960927963257 -0.9354268908500671 5.5333051681518555 190 154 128
-3.33182954788208 -0.6299734115600586 5.303748607635498 191 159 130
-2.1303467750549316 -0.976367175579071 5.578722953796387 134 98 76
-2.2569632530212402 -1.8083659410476685 4.896140098571777 201 205 225
-1.6752245426177979 -0.9747236371040344 5.633267402648926 168 127 99
-1.4806572198867798 -0.8489119410514832 5.626577854156494 116 80 59
-1.9790890216827393 -0.302978515625 5.422444820404053 79 59 51
-0.8719147443771362 -0.3250664174556732 5.574779510498047 116 92 75
-2.406059980392456 -1.7791897058486938 4.869983673095703 115 29 38
-1.7965401411056519 -1.6651768684387207 5.166774749755859 177 198 225
-1.3288064002990723 -1.1387240886688232 5.730680465698242 141 101 76
-2.6987791061401367 -0.39192306995391846 5.341827392578125 126 95 77
-2.733142375946045 -1.8393073081970215 4.713247776031494 0 176 75
-1.2648370265960693 -0.9294407367706299 5.6808271408081055 183 146 117
-2.846097469329834 -0.6861206889152527 5.391829490661621 117 85 70
-2.9545376300811768 -0.3608664870262146 5.300323486328125 140 107 90
-0.40666675567626953 -0.8865067362785339 5.7650837898254395 182 155 136
-1.3950107097625732 -1.0614584684371948 5.693405628204346 170 128 104
-2.1989495754241943 -0.8627499938011169 5.5324578285217285 135 103 82
-2.1889607906341553 -1.0664119720458984 5.587235450744629 128 86 64
-1.0843827724456787 -1.1520050764083862 5.740779399871826 154 118 94
-2.2694106101989746 -0.8972647190093994 5.537925720214844 186 152 124
-0.6828737258911133 -1.9813021421432495 5.232685565948486 190 198 173
-0.8127826452255249 -0.72622150182724 5.6768012046813965 75 52 43
-1.1312026977539062 -0.5519126653671265 5.596737384796143 101 75 68
-0.6834649443626404 -2.0390286445617676 5.1896562576293945 14 33 18
-0.6873227953910828 -2.0255379676818848 5.197933673858643 23 36 20
-0.5190274715423584 -0.0568743459880352 5.551210403442383 136 101 81
-2.2620038986206055 -1.778310775756836 4.919366836547852 98 5 13
-0.8236874341964722 -1.9764281511306763 5.192442417144775 12 41 29
-2.836111068725586 -1.7815676927566528 4.73583984375 1 168 72
-3.2079012393951416 -0.549159824848175 5.299911022186279 190 158 135
-0.5209969878196716 -0.25465938448905945 5.594831466674805 183 155 133
-1.4752265214920044 -0.583993136882782 5.568171977996826 181 144 119
-0.8236874341964722 -1.9764281511306763 5.192442417144775 12 41 29
-1.0771571397781372 -0.45145511627197266 5.592409133911133 183 151 130
-2.300347328186035 -0.46384814381599426 5.411176681518555 125 95 83
-3.0173227787017822 -0.5842200517654419 5.348442077636719 123 90 75
-1.7855501174926758 -0.9192160367965698 5.59508752822876 136 95 75
-2.744370937347412 -1.7972463369369507 4.746593952178955 161 220 214
-2.190791368484497 -1.74380624294281 4.972232341766357 166 20 23
-2.359431266784668 -1.0075078010559082 5.543950080871582 134 99 78
-0.40512606501579285 -0.6213292479515076 5.703903675079346 97 75 64
-2.1362557411193848 -1.828463077545166 4.920180797576904 109 17 22
-0.4033605754375458 -0.8577386736869812 5.753442287445068 179 151 129
-1.550155758857727 -0.7244312167167664 5.595297336578369 190 150 121
-1.4742921590805054 -1.8710819482803345 5.08359956741333 22 3 0
-2.1191186904907227 -0.9133344888687134 5.556849002838135 189 149 124
-1.6393789052963257 -1.8620946407318115 5.044998645782471 43 24 28
-2.296980857849121 -1.7914531230926514 4.896446704864502 112 18 23
-0.26318269968032837 -1.0515776872634888 5.818099498748779 191 159 136
-1.4742921590805054 -1.8710819482803345 5.08359956741333 22 3 0
-1.649794101715088 -1.0040901899337769 5.646782875061035 159 118 98
-0.9621325135231018 -0.8609830141067505 5.697347164154053 196 167 149
-0.9971573948860168 -1.9586460590362549 5.153626441955566 185 197 183
-2.066884756088257 -3.0556435585021973 6.044164180755615 92 121 137
-1.194555401802063 -0.7711719274520874 5.6545939445495605 87 58 44
-0.29137855768203735 -1.0603971481323242 5.8146491050720215 191 159 136
-2.48614239692688 -0.20195789635181427 5.324314594268799 191 159 134
-0.9944956302642822 -1.2129199504852295 5.741537094116211 133 117 102
-1.7867883443832397 -1.7613276243209839 5.102436065673828 173 194 218
-1.0564442873001099 -0.3017456829547882 5.539826393127441 170 139 122
-0.5388600826263428 -0.2194766402244568 5.574005126953125 150 114 94
-3.100094795227051 -0.7089427709579468 5.364671230316162 148 113 91
-2.1973540782928467 -1.7833592891693115 4.938420295715332 75 2 4
-0.6178560256958008 -0.5535778403282166 5.6616668701171875 177 147 121
-0.7047178745269775 -0.7881764769554138 5.708020210266113 85 64 47
-2.707576036453247 -0.5164234042167664 5.363458633422852 209 179 155
-1.4168386459350586 -0.04758412390947342 5.429206848144531 177 137 111
-1.1480711698532104 -1.1547995805740356 5.734250545501709 118 84 59
-0.9649994373321533 -0.06794039160013199 5.495178699493408 199 167 146
-2.0849132537841797 -1.0057411193847656 5.58328914642334 115 76 57
-2.193882703781128 -1.7921351194381714 4.929750919342041 169 199 226
-2.2528300285339355 -1.7909269332885742 4.913272380828857 170 203 236
-3.017655611038208 -0.7852153778076172 5.393455505371094 138 102 78
-0.8897076845169067 -1.950659155845642 5.192965030670166 177 193 167
-0.5709328651428223 -1.0842598676681519 5.787806034088135 119 88 71
-1.4454699754714966 -0.8495168089866638 5.628004550933838 184 140 109
-0.9963179230690002 -1.9940390586853027 5.130227565765381 184 196 184
-1.345597743988037 -0.5892165899276733 5.585376262664795 130 93 75
-1.5259250402450562 -0.3867684602737427 5.502914905548096 163 131 110
-2.170233964920044 -1.8140058517456055 4.918213367462158 107 11 15
-0.7141952514648438 -2.0016472339630127 5.209566593170166 14 35 24
-2.7519478797912598 -1.7902830839157104 4.754627704620361 2 180 84
-0.931229293346405 -1.9666491746902466 5.172098159790039 206 211 191
-0.922666609287262 -1.0878958702087402 5.767596244812012 120 91 77
-0.7471485733985901 -0.5807405710220337 5.652465343475342 106 81 69
-2.793959617614746 -0.3903779089450836 5.324479103088379 195 159 133
-1.7395365238189697 -0.6423538327217102 5.548372745513916 182 152 141
-2.783935546875 -1.761536717414856 4.777512550354004 2 128 38
-0.7703708410263062 -0.16698579490184784 5.543834209442139 166 140 125
-2.373095750808716 -1.759606122970581 4.901190280914307 93 12 11
-1.2553695440292358 -0.5567391514778137 5.591646194458008 148 113 94
-2.7072157859802246 -1.8033959865570068 4.747537136077881 175 221 227
-2.217552661895752 -1.8057862520217896 4.909624099731445 63 7 7
-1.8654474020004272 -0.8453090190887451 5.581498146057129 89 61 49
-0.32710710167884827 -0.8079953789710999 5.75285530090332 118 91 74
-1.2699528932571411 -0.4140606224536896 5.544313430786133 199 165 145
-1.0145858526229858 -1.929473638534546 5.171212673187256 186 199 183
-2.6795060634613037 -0.3775291442871094 5.343428611755371 96 67 51
-2.066884756088257 -3.0556435585021973 6.044164180755615 92 121 137
-1.8221505880355835 -3.1039135456085205 6.090162754058838 109 138 160
-2.2034504413604736 -1.7872107028961182 4.929604530334473 115 16 20
-0.9745210409164429 -0.8570399284362793 5.702347755432129 111 87 69
-3.6264991760253906 -0.387195348739624 5.217660903930664 119 89 78
-2.15262508392334 -1.8001497983932495 4.938565731048584 174 202 236
-1.9435216188430786 -1.007095456123352 5.605713844299316 148 102 79
-1.1793338060379028 -1.1049919128417969 5.73410701751709 103 70 51
-2.0932376384735107 -0.8826404213905334 5.556987762451172 139 106 91
-1.3950107097625732 -1.0614584684371948 5.693405628204346 170 128 104
-1.561869740486145 -1.0286970138549805 5.662293434143066 118 85 69
-2.785999298095703 -1.7812981605529785 4.749733924865723 185 234 238
-2.1910343170166016 -1.815792202949524 4.912877559661865 192 206 223
-0.7344834804534912 -2.009094476699829 5.198647499084473 184 198 181
-1.561869740486145 -1.0286970138549805 5.662293434143066 118 85 69
-2.2620038986206055 -1.778310775756836 4.919366836547852 98 5 13
-1.2826716899871826 -0.2151222676038742 5.489908218383789 74 55 43
-1.0634232759475708 -0.4772455394268036 5.586223602294922 187 151 129
-1.6832067966461182 -0.5006007552146912 5.51060676574707 128 101 82
-2.2394466400146484 -1.8233460187911987 4.886610984802246 112 20 25
-2.7072157859802246 -1.8033959865570068 4.747537136077881 175 221 227
-1.7116698026657104 -3.168328285217285 6.1215009689331055 14 30 45
-1.7116873264312744 -0.2544347047805786 5.44483757019043 178 138 113
-0.8288609385490417 -0.9543469548225403 5.749440670013428 122 94 80
-2.7315404415130615 -1.7907015085220337 4.7522358894348145 176 218 232
-2.4707934856414795 -0.995141327381134 5.523375988006592 117 85 70
-1.1567667722702026 -0.1540556102991104 5.492402076721191 165 132 113
-1.2140452861785889 -0.9135101437568665 5.6758012771606445 132 90 66
-2.190791368484497 -1.74380624294281 4.972232341766357 166 20 23
-0.691725492477417 -0.9759315848350525 5.751974105834961 195 164 144
-0.8490576148033142 -0.6876322031021118 5.677605152130127 193 167 144
-1.9790890216827393 -0.302978515625 5.422444820404053 79 59 51
-2.785999298095703 -1.7812981605529785 4.749733924865723 185 234 238
-1.469009280204773 -1.8795393705368042 5.078782558441162 208 162 47
-2.0927040576934814 -0.7990878820419312 5.532925128936768 205 172 153
-2.7345376014709473 -0.4764602482318878 5.355307102203369 184 148 124
-2.704275131225586 -0.4159112870693207 5.3425469398498535 168 139 115
-0.9672571420669556 -0.5736554265022278 5.627530574798584 191 160 132
-1.6407874822616577 -0.9257580041885376 5.624505043029785 90 58 43
-2.174679756164551 -0.2526145279407501 5.375835418701172 132 97 78
-2.357182264328003 -1.7881147861480713 4.883768081665039 115 20 28
-2.199289321899414 -1.8152799606323242 4.907327175140381 87 5 6
-2.2338919639587402 -0.8630169034004211 5.524147033691406 100 78 65
-2.681743621826172 -0.37010458111763 5.334898471832275 131 98 79
-2.2919232845306396 -1.7852985858917236 4.906339168548584 105 21 28
-2.846097469329834 -0.6861206889152527 5.391829490661621 117 85 70
-1.6112743616104126 -0.08578790724277496 5.4107842445373535 106 82 71
-2.9309422969818115 -1.7794524431228638 4.711776256561279 0 173 67
-2.2633626461029053 -1.8068115711212158 4.8966851234436035 187 202 225
-0.6828737258911133 -1.9813021421432495 5.232685565948486 190 198 173
-2.199289321899414 -1.8152799606323242 4.907327175140381 87 5 6
-2.8318278789520264 -1.1626633405685425 5.427993297576904 93 65 51
-2.434603691101074 -1.7472935914993286 4.8897600173950195 167 202 230
-2.099086284637451 -0.9892323613166809 5.583211421966553 191 151 122
-0.8943679332733154 -0.6529196500778198 5.649697303771973 104 78 63
-2.123098850250244 -0.8173695206642151 5.5287065505981445 185 151 129
-0.9911677241325378 -0.8147104382514954 5.677732467651367 193 166 145
-2.2489898204803467 -1.806299090385437 4.897919654846191 104 16 20
-2.871363639831543 -1.781663417816162 4.735963821411133 13 157 80
-3.0577781200408936 -0.6208427548408508 5.343626499176025 122 91 71
-0.6126756072044373 -0.17711685597896576 5.560950756072998 197 163 143
-0.6178560256958008 -0.5535778403282166 5.6616668701171875 177 147 121
-0.5861607193946838 -0.6198679804801941 5.68096923828125 138 109 94
-0.8640109896659851 -1.9733259677886963 5.189005374908447 3 15 4
-2.2073488235473633 -1.827724575996399 4.896097183227539 98 6 8
-1.658555269241333 -0.9938970804214478 5.652126312255859 97 62 40
-3.083732843399048 -0.4781374931335449 5.305813312530518 178 147 119
-0.8395931124687195 -0.44476017355918884 5.597731590270996 180 144 120
-1.210964560508728 -1.173464059829712 5.746410369873047 39 25 16
-0.6500339508056641 -1.9829933643341064 5.239466667175293 6 17 6
-0.7124282121658325 -0.9602385759353638 5.756068229675293 153 124 106
-1.9912699460983276 -1.1248916387557983 5.624344348907471 164 128 102
-1.3739159107208252 -0.8729722499847412 5.657339572906494 172 130 105
-0.972658634185791 -0.42418527603149414 5.578988075256348 72 53 49
-1.129057765007019 -0.7717516422271729 5.655943393707275 207 175 154
-1.7852048873901367 -0.6622949838638306 5.541950702667236 172 144 123
-1.0084890127182007 -1.9468786716461182 5.16099739074707 14 38 26
-0.7668001055717468 -1.9525219202041626 5.229217529296875 190 205 177
-0.8953636288642883 -0.3218318521976471 5.569019317626953 184 149 127
-1.9816056489944458 -3.1105477809906006 6.061183452606201 95 128 147
-0.9879794120788574 -0.8732312917709351 5.703946113586426 175 144 126
-0.6687055826187134 -2.000755786895752 5.215819358825684 190 202 190
-2.1942970752716064 -1.8115546703338623 4.919147968292236 110 17 20
-1.4494582414627075 -0.5043891668319702 5.540855407714844 180 146 121
-1.658555269241333 -0.9938970804214478 5.652126312255859 97 62 40
-2.3313283920288086 -1.8005344867706299 4.87880802154541 114 28 37
-0.9258361458778381 -1.9889705181121826 5.162076473236084 216 236 227
-2.434603691101074 -1.7472935914993286 4.8897600173950195 167 202 230
-2.2073488235473633 -1.827724575996399 4.896097183227539 98 6 8
-0.9745210409164429 -0.8570399284362793 5.702347755432129 111 87 69
-0.8395931124687195 -0.44476017355918884 5.597731590270996 180 144 120
-1.5108238458633423 -1.8563673496246338 5.083038806915283 47 14 3
-1.863770604133606 -1.183162808418274 5.606869220733643 64 52 44
-0.6583510637283325 -1.9751238822937012 5.2427239418029785 6 23 12
-0.4116276800632477 -0.23848150670528412 5.5982890129089355 75 57 48
-2.695753335952759 -1.8149265050888062 4.740724563598633 4 138 64
-1.9608081579208374 -0.168157696723938 5.39229154586792 161 123 104
-0.972658634185791 -0.42418527603149414 5.578988075256348 72 53 49
-1.8247976303100586 -1.0205692052841187 5.621987819671631 133 91 68
-2.9667139053344727 -1.7966341972351074 4.693398952484131 1 151 76
-0.983212947845459 -0.5608122944831848 5.628570556640625 115 82 67
-2.177849769592285 -1.8177082538604736 4.911568641662598 105 19 20
-1.7273807525634766 -0.7014074325561523 5.566457271575928 158 129 115
-1.5729408264160156 -0.5680859088897705 5.550507545471191 183 151 130
-0.6586114764213562 -2.0176432132720947 5.211426734924316 184 199 183
-1.2632578611373901 -1.8804799318313599 5.135278224945068 1 140 50
-2.017972469329834 -2.968986988067627 6.002082824707031 62 84 98
-2.3412857055664062 -1.7538912296295166 4.916301727294922 109 16 22
-1.1429616212844849 -0.1637963205575943 5.494195938110352 141 108 83
-2.9421281814575195 -1.7885297536849976 4.71144437789917 3 161 70
-2.0322012901306152 -3.1199991703033447 6.062067985534668 105 138 157
-1.5337560176849365 -1.8750817775726318 5.064210891723633 19 39 65
-2.3313283920288086 -1.8005344867706299 4.87880802154541 114 28 37
-2.8044095039367676 -1.802854299545288 4.7225117683410645 5 152 70
-0.7259549498558044 -1.9957753419876099 5.211639404296875 180 197 172
-2.1398754119873047 -1.7946345806121826 4.947477340698242 162 19 23
-2.246061325073242 -0.8174133896827698 5.508312225341797 198 162 138
-2.4659712314605713 -0.32961320877075195 5.3581109046936035 94 72 58
-0.9079375267028809 -1.9676347970962524 5.174610137939453 186 201 179
-0.9567169547080994 -1.9457465410232544 5.175828456878662 182 197 169
-2.7066195011138916 -1.2238900661468506 5.386457443237305 25 23 24
-1.7666666507720947 -0.22251267731189728 5.427517414093018 189 150 121
-3.288057804107666 -0.561695396900177 5.2902960777282715 130 99 80
-0.8413209915161133 -0.4250625669956207 5.59271764755249 140 108 91
-2.0996859073638916 -0.9810174107551575 5.574227809906006 197 162 134
-2.7789101600646973 -1.7880436182022095 4.7472758293151855 1 156 75
-0.7047178745269775 -0.7881764769554138 5.708020210266113 85 64 47
-0.7519811391830444 -0.4549548327922821 5.6125288009643555 99 72 52
-0.6252121925354004 -0.20878754556179047 5.581368923187256 92 76 67
-2.2394466400146484 -1.8233460187911987 4.886610984802246 112 20 25
-0.8166117072105408 -0.15933386981487274 5.529917240142822 58 46 44
-0.8405918478965759 -1.9509292840957642 5.19857931137085 187 199 187
-2.8457822799682617 -1.7741990089416504 4.737613201141357 167 211 213
-2.7365758419036865 -1.0820695161819458 5.509128570556641 184 148 126
-2.1973540782928467 -1.7833592891693115 4.938420295715332 75 2 4
-2.4515085220336914 -1.7515920400619507 4.884049892425537 127 30 33
-2.3051722049713135 -1.7957781553268433 4.890809059143066 178 201 227
-1.7459758520126343 -0.6715465784072876 5.539716720581055 182 152 128
-0.752870500087738 -2.0255725383758545 5.178896903991699 7 32 21
-1.5925079584121704 -0.5791404843330383 5.553468704223633 179 152 129
-0.740468442440033 -1.9536548852920532 5.23713493347168 188 202 180
-1.9608081579208374 -0.168157696723938 5.39229154586792 161 123 104
-0.7776135802268982 -2.001650810241699 5.186303615570068 14 42 29
-2.8730533123016357 -0.3455697000026703 5.305403709411621 192 156 130
-1.632593035697937 -1.870568871498108 5.039645671844482 21 6 13
-0.8715269565582275 -1.9596623182296753 5.1917500495910645 180 195 174
-0.8245619535446167 -1.996989369392395 5.177962303161621 6 28 15
-2.7496519088745117 -1.804766058921814 4.7399821281433105 2 174 73
-2.197129011154175 -1.8236491680145264 4.897683620452881 170 212 237
-0.740468442440033 -1.9536548852920532 5.23713493347168 188 202 180
-0.46279850602149963 -0.3396940529346466 5.634990692138672 134 103 84
-2.6037230491638184 -1.0954251289367676 5.5502848625183105 158 122 100
-2.667513132095337 -1.2538236379623413 5.372429847717285 13 31 4
-0.5861607193946838 -0.6198679804801941 5.68096923828125 138 109 94
-1.2613108158111572 -0.321387380361557 5.5244526863098145 149 114 92
-1.5520800352096558 -0.3630930185317993 5.4919257164001465 82 56 45
-2.286761999130249 -0.9089134335517883 5.530597686767578 196 160 128
-0.7521857023239136 -2.012812852859497 5.1899542808532715 14 41 30
-0.752870500087738 -2.0255725383758545 5.178896903991699 7 32 21
-1.0295484066009521 -1.9386684894561768 5.15258264541626 11 32 17
-0.892686128616333 -1.9577805995941162 5.189201831817627 171 191 162
-2.306476354598999 -1.815639853477478 4.871464729309082 81 8 7
-2.111631155014038 -0.06614222377538681 5.340450763702393 183 149 128
-1.945041537284851 -0.6205489039421082 5.5036725997924805 183 154 135
-2.3120596408843994 -1.8106868267059326 4.876952648162842 201 207 215
-0.3597370386123657 -1.0886971950531006 5.826562881469727 185 154 133
-3.38614821434021 -0.9186692833900452 5.370915412902832 189 153 127
-1.4163391590118408 -0.30436864495277405 5.503213405609131 87 62 46
-2.237356185913086 -1.8139374256134033 4.894031524658203 169 206 239
-0.8828633427619934 -1.9567643404006958 5.188433647155762 10 40 30
-2.174679756164551 -0.2526145279407501 5.375835418701172 132 97 78
-1.5689358711242676 -3.22402286529541 6.153075218200684 35 58 74
-0.5728461146354675 -0.3946373164653778 5.630301475524902 157 123 98
-0.8988423347473145 -1.951338291168213 5.189579963684082 8 24 13
-3.679478883743286 -0.6863653659820557 5.285678863525391 133 102 84
-2.049511432647705 -0.07263756543397903 5.350365161895752 173 138 116
-3.197986364364624 -0.49966761469841003 5.295236110687256 150 117 98
-2.227200508117676 -1.7965341806411743 4.914158344268799 101 14 20
-0.8982599973678589 -0.4765709638595581 5.603007793426514 187 152 130
-1.1878314018249512 -0.17030522227287292 5.48909330368042 188 161 144
-1.2848031520843506 -0.6233123540878296 5.595898151397705 82 58 45
-1.8512455224990845 -0.8197019696235657 5.573451519012451 186 150 126
-2.0367348194122314 -0.858193039894104 5.553516387939453 152 119 100
-2.575948476791382 -0.39813369512557983 5.357452869415283 129 98 83
-0.9966433048248291 -0.5009645819664001 5.588993549346924 92 64 50
-1.2558009624481201 -0.853814959526062 5.652206897735596 172 133 104
-1.1949971914291382 -0.1664116084575653 5.492866516113281 47 29 24
-1.0342696905136108 -1.9163471460342407 5.174854278564453 11 29 13
-2.1495938301086426 -0.4006313979625702 5.423941612243652 111 81 69
-2.9869422912597656 -0.6419167518615723 5.349420070648193 139 104 84
-2.2491226196289062 -1.831750512123108 4.880261421203613 168 207 235
-0.940558135509491 -1.9597710371017456 5.172677516937256 202 212 180
-0.8166117072105408 -0.15933386981487274 5.529917240142822 58 46 44
-2.2284698486328125 -1.8260765075683594 4.889261722564697 118 27 32
-0.997468113899231 -1.9342621564865112 5.171837329864502 185 196 174
-0.4202258586883545 -0.8907307982444763 5.758872032165527 181 155 132
-2.2699074745178223 -1.797964334487915 4.899674415588379 113 24 29
-2.441762685775757 -1.080307960510254 5.550397872924805 155 117 98
-1.8704746961593628 -0.8300170302391052 5.57154655456543 172 137 115
-0.7609289884567261 -1.9584152698516846 5.227249622344971 5 20 5
-0.752888023853302 -1.957427978515625 5.2329630851745605 182 188 162
-0.5204145312309265 -1.064873218536377 5.7922186851501465 135 104 84
-1.3892295360565186 -0.2801772654056549 5.497596740722656 170 138 123
-2.159431219100952 -1.8223347663879395 4.92025089263916 114 20 24
-0.8142114877700806 -0.4283508062362671 5.605299949645996 168 132 110
-0.8085055351257324 -1.9426424503326416 5.224428653717041 0 15 1
-0.66634601354599 -1.9795477390289307 5.239028453826904 181 197 162
-2.2284698486328125 -1.8260765075683594 4.889261722564697 118 27 32
-3.0490849018096924 -0.6840206980705261 5.3615264892578125 147 116 95
-1.591457486152649 -0.9912979602813721 5.669968128204346 120 84 60
-1.0231034755706787 -0.8624083995819092 5.697265148162842 183 154 136
-1.1864198446273804 -0.4434765577316284 5.571618556976318 159 126 107
-0.7655046582221985 -1.9452078342437744 5.236837387084961 183 194 156
-1.2202659845352173 -0.7687637805938721 5.650257110595703 164 130 103
-0.44139671325683594 -0.19635318219661713 5.585816383361816 166 129 110
-2.267228126525879 -1.7516300678253174 4.948577404022217 101 17 29
-0.6124217510223389 -0.3218284845352173 5.6059746742248535 104 75 57
-0.8490576148033142 -0.6876322031021118 5.677605152130127 193 167 144
-3.6623001098632812 -0.3407738506793976 5.194823265075684 164 127 101
-2.206645965576172 -1.7959834337234497 4.92518949508667 87 8 11
-0.7735821008682251 -1.9972596168518066 5.196060657501221 171 194 180
-1.7645516395568848 -0.8373805284500122 5.602577209472656 184 145 114
-2.342766523361206 -1.786409616470337 4.888364791870117 169 207 236
-1.6250946521759033 -1.0048620700836182 5.660091400146484 125 92 73
-3.141672134399414 -0.7389137744903564 5.370462417602539 156 121 102
-1.8202435970306396 -3.025740623474121 6.078015327453613 102 133 157
-2.1948256492614746 -0.7431738972663879 5.5093536376953125 136 110 97
-1.4473381042480469 -1.0523520708084106 5.682779788970947 117 79 56
-1.5659369230270386 -0.4754141569137573 5.526484966278076 115 86 68
-1.4300616979599 -0.3299408555030823 5.501699924468994 150 115 94
-2.9169981479644775 -1.7705389261245728 4.731430530548096 173 223 222
-0.9735262393951416 -1.2963820695877075 5.680906772613525 32 39 26
-2.0299832820892334 -0.33925333619117737 5.41716194152832 127 95 80
-2.297905683517456 -1.8019154071807861 4.8899922370910645 87 4 6
-3.22176194190979 -0.779883086681366 5.368097305297852 148 111 92
-0.8867582082748413 -1.9126560688018799 5.219009876251221 182 193 168
-0.6633449792861938 -0.5605888962745667 5.661122798919678 162 129 110
-0.48171931505203247 -0.4630206227302551 5.64323091506958 158 130 109
-1.0295484066009521 -1.9386684894561768 5.15258264541626 11 32 17
-2.2737650871276855 -1.8083521127700806 4.890864849090576 131 43 47
-2.1848626136779785 -1.8120107650756836 4.922369003295898 178 129 148
-1.2165002822875977 -0.38790056109428406 5.53966760635376 168 134 114
-1.447405457496643 -0.8887187838554382 5.641834259033203 138 100 77
-0.6124217510223389 -0.3218284845352173 5.6059746742248535 104 75 57
-0.649232029914856 -2.0162360668182373 5.215216159820557 28 51 35
-0.6877362132072449 -1.976151704788208 5.238153457641602 17 37 23
-1.9568524360656738 -2.9664011001586914 6.036771774291992 64 90 107
-1.787279725074768 -1.8097714185714722 5.053497314453125 168 31 39
-2.9172537326812744 -0.5695171356201172 5.351426601409912 185 155 131
-2.8457822799682617 -1.7741990089416504 4.737613201141357 167 211 213
-0.6659148931503296 -1.1511462926864624 5.791142463684082 128 103 91
-2.3138012886047363 -1.124342918395996 5.567863941192627 52 43 38
-2.8946468830108643 -1.776366949081421 4.724506855010986 5 147 76
-0.4199545085430145 -0.9098587036132812 5.780383110046387 173 138 119
-2.7919838428497314 -0.4493107199668884 5.344458103179932 153 120 103
-1.3714338541030884 -0.40703636407852173 5.52288293838501 163 132 114
-1.2568310499191284 -0.4066683351993561 5.541811943054199 200 174 151
-2.7924399375915527 -1.791736125946045 4.7469353675842285 1 121 42
-2.7919838428497314 -0.4493107199668884 5.344458103179932 153 120 103
-1.3758735656738281 -0.43720731139183044 5.538440704345703 130 110 101
-0.6931617856025696 -0.8721960186958313 5.731974124908447 174 146 132
-2.2688887119293213 -1.815669298171997 4.883589267730713 170 201 225
-0.8031721115112305 -0.4063057005405426 5.599010944366455 138 109 89
-1.097702980041504 -0.1383085399866104 5.494340896606445 156 121 101
-1.2742228507995605 -0.006298989523202181 5.437677383422852 188 148 122
-1.1279654502868652 -0.12031204998493195 5.479547500610352 42 28 16
-2.9613351821899414 -1.8023725748062134 4.690045356750488 175 235 221
-1.9700990915298462 -0.2970152199268341 5.420118808746338 68 48 38
-1.8309561014175415 -1.0872834920883179 5.644659519195557 98 65 52
-1.5641803741455078 -0.7564648389816284 5.610735893249512 144 103 81
-0.4991610050201416 -0.1602201610803604 5.567174434661865 129 97 80
-1.4933342933654785 -0.021664369851350784 5.424415111541748 136 103 86
-2.233792543411255 -1.8097840547561646 4.907778739929199 172 205 236
-0.7690016627311707 -2.005174160003662 5.191714286804199 7 25 9
-2.3051722049713135 -1.7957781553268433 4.890809059143066 178 201 227
-2.3120596408843994 -1.8106868267059326 4.876952648162842 201 207 215
-0.49418115615844727 -0.042512472718954086 5.551474094390869 161 124 105
-1.0694762468338013 -0.10220860689878464 5.485408782958984 47 28 21
-0.7141952514648438 -2.0016472339630127 5.209566593170166 14 35 24
-2.3796515464782715 -0.9333009719848633 5.526430130004883 131 104 85
-1.1029245853424072 -0.47522398829460144 5.587050914764404 182 146 123
-2.4156510829925537 -0.2694416046142578 5.350007057189941 169 133 111
-0.9296278357505798 -1.9978609085083008 5.148405075073242 188 186 178
-1.1429616212844849 -0.1637963205575943 5.494195938110352 141 108 83
-0.6189724206924438 -1.9565433263778687 5.281110763549805 7 127 40
-2.2255234718322754 -1.7936460971832275 4.921542644500732 63 7 11
-1.6866652965545654 -0.5548464059829712 5.530669212341309 181 150 130
-2.3735451698303223 -1.0179660320281982 5.547478199005127 111 80 59
-2.720632314682007 -1.7935086488723755 4.756611347198486 9 133 56
-2.5225958824157715 -0.2640538513660431 5.332340717315674 122 91 73
-2.808546543121338 -1.0994442701339722 5.497023105621338 39 42 28
-0.3918914496898651 -0.5697524547576904 5.6922221183776855 173 143 117
-2.2284727096557617 -0.9170998334884644 5.539885520935059 195 160 130
-2.3735451698303223 -1.0179660320281982 5.547478199005127 111 80 59
-1.6039295196533203 -0.9060555696487427 5.630000114440918 95 62 49
-2.257922649383545 -0.7887217402458191 5.506892204284668 122 93 77
-0.5046494603157043 -0.9279751181602478 5.770499229431152 189 163 144
-2.439267873764038 -0.05442753806710243 5.288005828857422 214 184 158
-1.179914951324463 -0.8968135118484497 5.69306755065918 117 79 55
-1.0593808889389038 -0.8244264125823975 5.685550689697266 106 83 70
-1.9833439588546753 -0.04461032897233963 5.354945182800293 120 93 81
-1.1607683897018433 -0.6819462180137634 5.631656646728516 206 170 144
-0.7259549498558044 -1.9957753419876099 5.211639404296875 180 197 172
-1.5151665210723877 -0.7280101776123047 5.59657096862793 138 94 69
-0.747489333152771 -1.1551666259765625 5.815173149108887 151 122 108
-1.2165002822875977 -0.38790056109428406 5.53966760635376 168 134 114
-2.826331853866577 -1.189044713973999 5.388790607452393 37 50 40
-2.3963820934295654 -1.0307683944702148 5.549310684204102 108 74 55
-0.6745124459266663 -1.985193133354187 5.231329441070557 18 34 10
-2.2628819942474365 -1.8238842487335205 4.878048896789551 117 25 31
-1.88676917552948 -0.03217184171080589 5.358316898345947 195 163 139
-2.9550654888153076 -1.7966248989105225 4.694685459136963 173 223 219
-2.8318278789520264 -1.1626633405685425 5.427993297576904 93 65 51
-0.9649994373321533 -0.06794039160013199 5.495178699493408 199 167 146
-0.3009597063064575 -0.7970771789550781 5.771973609924316 136 109 95
-0.9880194664001465 -1.9473735094070435 5.165299415588379 22 43 29
-1.3262805938720703 -0.6629654169082642 5.616725921630859 192 151 121
-1.8118774890899658 -0.2579600214958191 5.43165922164917 147 102 76
-0.946460485458374 -1.9381619691848755 5.192444801330566 209 229 217
-2.9967119693756104 -1.784091591835022 4.692803859710693 180 215 231
-1.636642336845398 -0.7293599247932434 5.589834690093994 133 98 80
-1.2418512105941772 -0.8418089747428894 5.662762641906738 191 151 125
-1.4436765909194946 -3.2265982627868652 6.163025856018066 102 139 157
-0.4917004704475403 -0.270127534866333 5.598358154296875 105 76 62
-2.0638163089752197 -3.0507662296295166 6.058229923248291 101 128 147
-1.6752245426177979 -0.9747236371040344 5.633267402648926 168 127 99
-1.0482280254364014 -0.4515964388847351 5.579314708709717 174 146 124
-2.150691032409668 -1.8242006301879883 4.918822288513184 119 25 28
-1.9286580085754395 -0.6512946486473083 5.518611907958984 141 113 91
-1.4565266370773315 -0.4273231327533722 5.5275492668151855 166 132 116
-2.3159701824188232 -1.066137433052063 5.574031829833984 104 69 49
-1.5420418977737427 -0.5913557410240173 5.557356357574463 88 63 51
-1.2414593696594238 -0.21440573036670685 5.492283821105957 154 120 104
-1.7846612930297852 -1.008339762687683 5.636050701141357 165 123 99
-0.5228133797645569 -0.22832335531711578 5.581690788269043 155 120 100
-2.7006049156188965 -0.44209614396095276 5.352777004241943 192 158 133
-2.622696876525879 -0.3999008238315582 5.351545810699463 128 99 83
-1.3262805938720703 -0.6629654169082642 5.616725921630859 192 151 121
-3.4665956497192383 -0.4095722436904907 5.234090805053711 145 112 93
-0.722029447555542 -1.9545117616653442 5.244034767150879 15 36 20
-0.6682975888252258 -0.22884802520275116 5.573853969573975 66 49 41
-2.7860381603240967 -1.7201493978500366 4.816767692565918 11 89 17
-1.5772838592529297 -0.9214916229248047 5.635524749755859 177 135 110
-2.1069130897521973 -0.36392828822135925 5.420220375061035 96 68 56
-2.1305794715881348 -1.8219012022018433 4.925566673278809 85 4 6
-1.5069998502731323 -0.9469552636146545 5.653992176055908 118 83 64
-2.229691743850708 -0.14426550269126892 5.340322971343994 162 126 107
-2.2559285163879395 -0.9633893966674805 5.541960716247559 136 101 81
-2.2589614391326904 -0.9934888482093811 5.558999061584473 187 146 124
-0.6889368295669556 -1.1313896179199219 5.796573162078857 151 118 99
-2.1781821250915527 -0.21775655448436737 5.3584418296813965 164 127 100
-0.6567746996879578 -1.9826916456222534 5.236105442047119 9 28 9
-2.2293193340301514 -1.7841248512268066 4.9277849197387695 113 17 23
-1.7149540185928345 -0.9649367928504944 5.628916263580322 111 76 55
-1.3084934949874878 -0.22049902379512787 5.494804382324219 139 106 87
-2.060274124145508 -1.1585224866867065 5.597004413604736 114 137 83
-2.699246883392334 -0.4339503049850464 5.349544525146484 142 112 88
-0.6877362132072449 -1.976151704788208 5.238153457641602 17 37 23
-2.847862958908081 -1.1650917530059814 5.400578022003174 206 130 103
-0.48544129729270935 -0.07358717173337936 5.554989337921143 80 51 40
-2.988924264907837 -1.7906981706619263 4.691688537597656 1 150 73
-1.4589351415634155 -0.7019876837730408 5.599518775939941 127 84 67
-0.9079375267028809 -1.9676347970962524 5.174610137939453 186 201 179
-0.9148240685462952 -2.0233914852142334 5.12330436706543 181 182 179
-2.1490535736083984 -1.821401834487915 4.920421123504639 102 11 17
-0.8867582082748413 -1.9126560688018799 5.219009876251221 182 193 168
-0.699258029460907 -0.28883928060531616 5.584327220916748 165 135 111
-0.868705153465271 -0.4621724784374237 5.612892150878906 171 134 108
-2.201683282852173 -1.804722547531128 4.921957492828369 164 201 225
-1.2094542980194092 -0.8232486844062805 5.65974235534668 182 146 120
-0.3714209198951721 -0.4338405430316925 5.661832809448242 72 50 39
-0.8494949340820312 -1.0148786306381226 5.750903129577637 106 89 78
-1.4565266370773315 -0.4273231327533722 5.5275492668151855 166 132 116
-3.1282105445861816 -0.2695029079914093 5.234394550323486 154 122 102
-0.7283503413200378 -1.9586873054504395 5.2365031242370605 180 195 161
-2.8809614181518555 -1.7767353057861328 4.727518081665039 180 221 231
-2.0927040576934814 -0.7990878820419312 5.532925128936768 205 172 153
-2.699246883392334 -0.4339503049850464 5.349544525146484 142 112 88
-2.2591073513031006 -1.8138810396194458 4.892795562744141 102 21 23
-3.0887796878814697 -0.4395061433315277 5.294004440307617 110 78 59
-1.787279725074768 -1.8097714185714722 5.053497314453125 168 31 39
-1.6179901361465454 -0.8444117307662964 5.618446350097656 138 100 77
-1.2402842044830322 -0.48907312750816345 5.565572738647461 73 46 29
-0.5837620496749878 -0.17905819416046143 5.577456951141357 148 118 93
-1.9024964570999146 -0.2543325126171112 5.420408725738525 91 64 57
-0.5552517771720886 -0.20747143030166626 5.5819597244262695 162 128 103
-1.3288332223892212 -0.35457301139831543 5.523926734924316 75 47 35
-2.706151247024536 -1.8040460348129272 4.748595237731934 172 220 230
-1.2831652164459229 -0.011414701119065285 5.43846321105957 189 151 130
-2.049564838409424 -1.1682409048080444 5.587944030761719 63 54 48
-2.6818277835845947 -1.8176639080047607 4.746314525604248 175 221 234
-0.7315318584442139 -1.949906826019287 5.240495681762695 1 13 1
-0.6750744581222534 -1.9722819328308105 5.243002891540527 19 29 14
-2.618251085281372 -0.32985779643058777 5.337969779968262 125 92 73
-0.7876466512680054 -0.7264188528060913 5.692340850830078 168 138 117
-0.9884389638900757 -0.644841194152832 5.641324996948242 208 180 159
-1.2548214197158813 -0.847352147102356 5.654726028442383 189 153 125
-1.9226137399673462 -0.07024119049310684 5.365041255950928 70 46 33
-1.3758735656738281 -0.43720731139183044 5.538440704345703 130 110 101
-2.300618886947632 -1.7853362560272217 4.90187406539917 199 202 223
-1.115834355354309 -0.7598937749862671 5.651154518127441 180 152 130
-0.644877552986145 -1.9875174760818481 5.241942405700684 23 37 23
-0.6264932751655579 -0.5660234093666077 5.656713008880615 71 49 35
-1.1492443084716797 -0.8892112970352173 5.676315784454346 196 161 139
-1.3449174165725708 -3.094095230102539 6.149084568023682 16 30 41
-1.4660409688949585 -0.33195409178733826 5.499642848968506 73 41 30
-0.8981049656867981 -0.3775746524333954 5.57769775390625 176 145 124
-1.8964070081710815 -1.1321213245391846 5.647619247436523 135 100 78
-0.21551455557346344 -0.8272390961647034 5.764864921569824 162 130 109
-2.9395737648010254 -0.3939875364303589 5.30708646774292 197 161 137
-0.48544129729270935 -0.07358717173337936 5.554989337921143 80 51 40
-2.7321553230285645 -0.3483368158340454 5.330071449279785 183 149 122
-1.917960524559021 -0.05293555185198784 5.353734016418457 176 138 114
-1.1144113540649414 -0.8864731788635254 5.691469192504883 183 147 123
-0.7381379008293152 -1.964003086090088 5.228038311004639 191 210 169
-2.1298913955688477 -1.8281846046447754 4.9230523109436035 184 200 226
-0.8039838075637817 -0.9699137806892395 5.740086555480957 198 171 152
-2.706672191619873 -0.2295207381248474 5.29363489151001 189 155 130
-2.0891666412353516 -0.2733117938041687 5.395228385925293 195 156 129
-1.5704096555709839 -0.4925236403942108 5.5293145179748535 176 144 123
-0.799528956413269 -2.0050275325775146 5.180319786071777 23 46 28
-2.305767774581909 -1.8020669221878052 4.884837627410889 234 222 238
-1.017106533050537 -1.9082030057907104 5.183766841888428 5 31 18
-3.60764217376709 -0.23297038674354553 5.17357063293457 119 87 68
-0.31996482610702515 -0.13808241486549377 5.588759422302246 72 53 41
-1.4659550189971924 -0.32509809732437134 5.488832473754883 187 151 130
-0.9211845993995667 -1.9767465591430664 5.169686794281006 216 230 206
-2.139683723449707 -0.8274076581001282 5.529210567474365 190 155 135
-2.3388776779174805 -0.9988927841186523 5.556198596954346 131 99 78
-0.8196020126342773 -0.7410298585891724 5.675490379333496 181 148 129
-0.6692705750465393 -0.21081511676311493 5.5691938400268555 159 127 104
-0.8856763243675232 -0.7163443565368652 5.661844730377197 195 167 145
-3.5692903995513916 -0.25646430253982544 5.185103893280029 192 165 139
-0.5169774293899536 -3.837026834487915 7.687982082366943 36 57 64
-2.2987544536590576 -0.21584175527095795 5.351387023925781 98 66 47
-3.013706922531128 -1.77586829662323 4.6914215087890625 166 217 212
-2.3741250038146973 -1.7755261659622192 4.883241176605225 119 30 35
-0.6428765654563904 -1.995487928390503 5.237579822540283 29 46 29
-0.395268052816391 -1.06551194190979 5.798562049865723 150 114 98
-0.9360933303833008 -1.953853964805603 5.179081916809082 177 203 165
-2.1333746910095215 -0.8137055039405823 5.530834197998047 98 76 63
-1.86052668094635 -1.1449604034423828 5.642007827758789 41 35 32
-0.716830849647522 -1.9761792421340942 5.226840972900391 3 16 2
-2.3192780017852783 -1.806359052658081 4.874920845031738 103 18 17
-2.2255234718322754 -1.7936460971832275 4.921542644500732 63 7 11
-0.6897683143615723 -2.043407678604126 5.187806606292725 182 196 169
-0.6352189779281616 -1.9885735511779785 5.2412614822387695 184 195 171
-1.4340931177139282 -0.27050745487213135 5.490408897399902 170 138 117
-0.9360933303833008 -1.953853964805603 5.179081916809082 177 203 165
-0.7177334427833557 -0.13566473126411438 5.543557643890381 66 43 37
-0.6794286370277405 -0.787777841091156 5.709776401519775 184 152 131
-0.9963368773460388 -1.9222993850708008 5.180727958679199 189 205 188
-2.5000789165496826 -0.3448675572872162 5.346548557281494 133 100 81
-0.7894913554191589 -0.8689679503440857 5.711411476135254 126 102 92
-0.7599425911903381 -0.17666414380073547 5.550563335418701 146 111 92
-0.7668001055717468 -1.9525219202041626 5.229217529296875 190 205 177
-0.58139967918396 -0.9864747524261475 5.779953956604004 155 124 106
-2.427541494369507 -0.2254258245229721 5.334632873535156 198 166 142
-0.9238651394844055 -0.019051363691687584 5.484994888305664 50 24 10
-1.9485470056533813 -0.20446692407131195 5.3973917961120605 96 64 41
-3.0577781200408936 -0.6208427548408508 5.343626499176025 122 91 71
-1.9453389644622803 -0.12874241173267365 5.376785755157471 161 126 104
-1.6059517860412598 -0.07580826431512833 5.412599563598633 62 41 31
-0.3868233561515808 -0.8675928711891174 5.762196063995361 124 94 83
-1.747477412223816 -0.7283391952514648 5.56688117980957 75 59 50
-1.4430264234542847 -0.052299391478300095 5.428187370300293 130 92 71
-2.2919232845306396 -1.7852985858917236 4.906339168548584 105 21 28
-2.9538187980651855 -0.9353978037834167 5.436450004577637 165 123 99
-0.896320641040802 -1.9424705505371094 5.193032264709473 6 32 23
-0.8716416358947754 -0.10931732505559921 5.525449752807617 167 135 114
-0.8245619535446167 -1.996989369392395 5.177962303161621 6 28 15
-2.4772064685821533 -0.08201982080936432 5.288833141326904 157 121 99
-0.7586112022399902 -0.9732540249824524 5.730874061584473 156 124 110
-2.4448964595794678 -1.1093705892562866 5.567800998687744 157 117 91
-0.8166348338127136 -1.9321776628494263 5.225860595703125 1 18 3
-2.327075242996216 -0.24202023446559906 5.361827373504639 158 125 106
-0.8714033961296082 -0.39076176285743713 5.600733280181885 167 131 105
-0.8097702264785767 -0.4810291826725006 5.626974105834961 63 44 38
-2.4296672344207764 -1.761144757270813 4.877521514892578 119 23 27
-2.1420176029205322 -1.825675129890442 4.918126583099365 214 199 219
-0.8039838075637817 -0.9699137806892395 5.740086555480957 198 171 152
-2.2912347316741943 -1.8332202434539795 4.861897945404053 162 36 38
-1.452736258506775 -0.9591819643974304 5.659302234649658 111 82 68
-1.6883522272109985 -0.24454179406166077 5.456864356994629 161 124 105
-2.695753335952759 -1.8149265050888062 4.740724563598633 4 138 64
-0.9971573948860168 -1.9586460590362549 5.153626441955566 185 197 183
-2.201683282852173 -1.804722547531128 4.921957492828369 164 201 225
-1.8916144371032715 -0.028319604694843292 5.36014986038208 80 51 34
-0.752362072467804 -0.33143818378448486 5.582470417022705 164 127 105
-0.6581828594207764 -0.6786403656005859 5.693382740020752 177 145 124
-0.9963368773460388 -1.9222993850708008 5.180727958679199 189 205 188
-0.7140797972679138 -0.12488850206136703 5.536559104919434 131 102 89
-1.175191044807434 -0.9028511047363281 5.688502788543701 180 138 113
-1.813515305519104 -0.345086008310318 5.457249641418457 194 154 128
-1.6090768575668335 -0.04601898789405823 5.409573554992676 95 59 43
-2.9538187980651855 -0.9353978037834167 5.436450004577637 165 123 99
-1.1478058099746704 -0.35820087790489197 5.540897846221924 81 58 49
-2.2713325023651123 -0.2550720274448395 5.358667373657227 184 147 121
-1.2272906303405762 -0.24672028422355652 5.515343189239502 85 58 45
-1.7708524465560913 -0.21221943199634552 5.432709693908691 133 92 70
-1.4115182161331177 -0.26195645332336426 5.480720043182373 164 129 109
-2.1029841899871826 -0.037217602133750916 5.327394485473633 165 130 108
-0.7346929907798767 -2.006777286529541 5.193723201751709 186 197 181
-3.518242835998535 -0.7121725082397461 5.300175666809082 98 65 46
-3.096055269241333 -0.16902488470077515 5.223376274108887 172 136 112
-2.37869930267334 -1.7783033847808838 4.886753082275391 75 6 9
-2.0944714546203613 -0.20186232030391693 5.38312292098999 84 56 43
-2.3152966499328613 -0.28189557790756226 5.3643035888671875 197 162 134
-2.466364860534668 -0.21730023622512817 5.3257060050964355 134 98 76
-0.7361277341842651 -1.993951439857483 5.209727764129639 14 38 31
-1.8133049011230469 -0.5498985648155212 5.507054805755615 188 159 141
-2.8453798294067383 -0.563376247882843 5.360634803771973 126 91 71
-2.1596858501434326 -1.823174238204956 4.913229465484619 65 1 1
-2.1281185150146484 -0.3692973554134369 5.409426212310791 133 99 87
-2.2836954593658447 -1.8202292919158936 4.880540370941162 87 25 32
-2.631347179412842 -0.4654499888420105 5.368188858032227 194 167 138
-2.988924264907837 -1.7906981706619263 4.691688537597656 1 150 73
-2.9169981479644775 -1.7705389261245728 4.731430530548096 173 223 222
-2.5909461975097656 -0.42892444133758545 5.359187602996826 187 153 125
-1.7261406183242798 -0.9586368799209595 5.624873638153076 193 149 122
-1.16551673412323 -0.5657986402511597 5.596059322357178 98 69 60
-2.1493237018585205 -0.7094789743423462 5.501404762268066 112 89 79
-3.284087896347046 -0.4397185742855072 5.257162094116211 111 82 68
-1.7401340007781982 -1.1681551933288574 5.641393184661865 103 119 82
-0.6296758055686951 -0.5728092789649963 5.654002666473389 168 139 121
-0.8030442595481873 -1.9406838417053223 5.227903366088867 173 189 154
-3.5228333473205566 -0.40719038248062134 5.2270002365112305 213 191 177
-0.6509122848510742 -1.9894804954528809 5.235286712646484 189 204 174
-0.5143296718597412 -0.1583888977766037 5.565572261810303 59 46 40
-2.7516496181488037 -0.2388976514339447 5.290670394897461 93 70 54
-0.5831337571144104 -0.6479910016059875 5.6826300621032715 186 155 134
