ply
format ascii 1.0
element vertex 702
property float x
property float y
property float z
property uchar red
property uchar green
property uchar blue
end_header
0.3965655267238617 0.18926101922988892 8.59985637664795 79 107 119
-1.6161092519760132 1.971416711807251 7.779110431671143 128 160 185
0.37213125824928284 0.3529377281665802 8.674172401428223 86 114 135
-0.25674256682395935 -0.6187108159065247 8.708112716674805 78 76 79
-0.4274289011955261 0.208646759390831 8.628009796142578 152 169 176
0.2963651418685913 -0.16555416584014893 8.501328468322754 170 182 168
0.45387914776802063 -0.14464327692985535 8.584720611572266 149 166 160
-0.5663509964942932 1.7650275230407715 7.452458381652832 134 123 140
-0.1079699769616127 0.1037696897983551 8.487702369689941 52 67 64
-1.0730966329574585 1.7568092346191406 7.479579925537109 153 171 185
0.5563629269599915 -0.7092875838279724 9.233721733093262 108 96 106
0.12094426155090332 -0.6637214422225952 8.707734107971191 211 229 215
-0.1278885304927826 0.3427788019180298 8.591927528381348 70 60 59
0.473542720079422 -0.22484488785266876 8.600005149841309 173 180 173
-0.5853541493415833 0.19409149885177612 8.738628387451172 55 54 70
-1.4094258546829224 1.6411588191986084 8.072040557861328 58 55 64
-0.6818626523017883 -0.20505183935165405 8.771349906921387 179 185 185
-1.4142869710922241 1.5355579853057861 8.201680183410645 43 46 55
-0.3308423161506653 -0.1615981161594391 8.532983779907227 162 174 174
-0.35847240686416626 1.3810690641403198 7.649110317230225 43 70 115
-0.7466393709182739 -0.15707528591156006 8.81153392791748 143 132 126
-1.456262230873108 1.8422449827194214 7.66848611831665 75 88 79
-0.14682450890541077 -0.11729103326797485 8.470111846923828 72 83 87
-0.154250830411911 -0.2438376247882843 8.490849494934082 134 137 130
-0.4432920217514038 0.1540765017271042 8.594046592712402 138 153 158
0.5711910724639893 -0.20620568096637726 8.65109634399414 140 136 125
-0.18870988488197327 -0.26181790232658386 8.49634838104248 158 159 151
-0.12286566197872162 -0.5874146819114685 8.638300895690918 202 213 207
-0.6040101051330566 1.9833199977874756 7.293514728546143 102 120 134
0.6075728535652161 0.1257370114326477 8.748510360717773 128 160 171
0.11628934741020203 -0.5626939535140991 8.597879409790039 191 209 183
-1.397739052772522 1.492085337638855 8.226815223693848 123 118 115
0.21757806837558746 0.42023158073425293 8.632637977600098 100 119 117
-2.0026471614837646 1.7120170593261719 7.8793463706970215 61 57 118
-0.3063531816005707 1.5296574831008911 7.648536205291748 172 198 197
0.7132110595703125 -1.0329341888427734 9.121761322021484 44 43 41
-0.1520088165998459 -0.1060662642121315 8.488127708435059 53 55 54
-0.7037096619606018 -0.17729806900024414 8.777273178100586 113 103 101
-0.5235763192176819 1.2793365716934204 7.659124851226807 42 56 93
-0.15607894957065582 -0.1510932594537735 8.473018646240234 42 46 45
0.3191225528717041 0.17950721085071564 8.572982788085938 139 153 166
-0.041513413190841675 -0.41218191385269165 8.517263412475586 197 217 208
-0.2813677489757538 0.34963753819465637 8.63090991973877 84 74 72
0.3053106665611267 -0.644939661026001 8.773122787475586 152 164 152
-0.4962160885334015 -0.041800081729888916 8.612957000732422 72 85 93
-0.3410326838493347 1.733451247215271 7.6287384033203125 58 58 68
-1.1175841093063354 1.0900487899780273 9.08847713470459 101 84 74
-0.005215688142925501 0.12453184276819229 8.495564460754395 134 163 167
-0.5478213429450989 1.904932975769043 7.218670845031738 96 117 118
-2.3149704933166504 1.886991262435913 8.083938598632812 130 162 183
-1.2180672883987427 1.5386821031570435 8.256291389465332 66 67 71
-2.3149704933166504 1.886991262435913 8.083938598632812 130 162 183
-1.5235414505004883 1.6653746366500854 8.142876625061035 131 137 151
-0.4553384482860565 1.607027292251587 7.573911190032959 68 100 149
0.24330593645572662 0.3164905607700348 8.652799606323242 120 152 177
-0.18944965302944183 -0.33292609453201294 8.507173538208008 206 223 217
-0.06820609420537949 1.7336095571517944 7.907736778259277 57 54 63
0.7592905759811401 -1.1581437587738037 9.138919830322266 188 181 173
-0.6543517112731934 -0.17483249306678772 8.720821380615234 168 179 173
-0.017441708594560623 1.4223986864089966 8.636238098144531 125 126 118
-0.7258782386779785 -0.15645894408226013 8.797632217407227 178 178 170
-0.18541941046714783 1.0954772233963013 9.440262794494629 93 91 79
-0.20070774853229523 1.7783734798431396 7.509500026702881 135 115 127
-0.24975676834583282 1.7298717498779297 7.730863571166992 77 86 69
-0.5027258992195129 1.5609768629074097 7.566016674041748 56 75 115
-0.5450485348701477 1.9965405464172363 7.230820655822754 120 151 179
-2.31892728805542 1.8506569862365723 8.083843231201172 124 161 180
0.47258269786834717 -0.1336977630853653 8.582873344421387 70 74 75
-0.08449853211641312 1.6265525817871094 8.482585906982422 148 156 159
-1.5182560682296753 1.5405470132827759 8.201934814453125 133 138 134
0.5005447268486023 0.019081834703683853 8.613800048828125 123 123 121
0.20825350284576416 0.14717939496040344 8.505040168762207 142 172 183
-0.3963831961154938 1.544829249382019 7.6151251792907715 68 85 115
-0.16610099375247955 -0.1618897169828415 8.455846786499023 101 102 88
-2.05334734916687 1.716786503791809 7.92210578918457 34 39 71
-0.004422835074365139 0.3191748857498169 8.557723999023438 101 129 143
0.8284620046615601 -0.9881477355957031 9.094882011413574 110 86 86
0.20074760913848877 -0.4512701630592346 8.560968399047852 218 231 214
-1.371997594833374 1.539079189300537 8.202198028564453 180 184 170
-0.7037096619606018 -0.17729806900024414 8.777273178100586 113 103 101
-0.6120156049728394 1.6379221677780151 7.540200710296631 42 74 95
0.0990172028541565 1.566892385482788 8.61412525177002 59 89 77
-0.3261646032333374 -0.04445040598511696 8.51772403717041 78 88 87
-0.34166020154953003 -0.5248514413833618 8.659893989562988 224 221 214
-0.39106813073158264 0.28292566537857056 8.651962280273438 70 76 76
0.3057432472705841 -0.47793230414390564 8.616633415222168 209 230 225
-0.1916535198688507 -0.6298804879188538 8.701001167297363 110 124 125
0.6030409932136536 -0.20650359988212585 8.700434684753418 139 127 115
-0.39800170063972473 1.2915185689926147 7.672260284423828 68 96 120
-0.012254862114787102 1.7168627977371216 7.946953296661377 35 42 48
0.23579652607440948 0.4822753369808197 8.719391822814941 65 92 111
-1.4637138843536377 1.5180670022964478 8.201766967773438 57 64 70
0.6085468530654907 0.10416559875011444 8.727705001831055 44 45 76
-0.5136610865592957 2.032454013824463 7.254373073577881 97 119 117
0.10360593348741531 -0.4075416624546051 8.519347190856934 171 184 177
0.12795814871788025 0.39528435468673706 8.623172760009766 115 139 151
-0.3410246670246124 -0.2737276554107666 8.540481567382812 192 192 194
-0.1901693046092987 -0.2995463013648987 8.500948905944824 192 204 202
-0.4511292576789856 -0.22211235761642456 8.582782745361328 155 152 143
0.7937663197517395 -1.0523979663848877 9.035505294799805 109 112 93
-0.5265964865684509 -0.03792469948530197 8.630206108093262 73 88 83
0.26292842626571655 0.15638037025928497 8.550121307373047 110 137 148
0.20920434594154358 -0.5337617993354797 8.612395286560059 238 249 245
-0.5684873461723328 -0.26574692130088806 8.675445556640625 176 187 171
-1.341244101524353 1.5956462621688843 8.197904586791992 22 23 25
-0.37353044748306274 -0.2944420576095581 8.54330825805664 172 163 156
0.5134708285331726 -1.0954054594039917 9.250716209411621 123 114 117
-1.2180672883987427 1.5386821031570435 8.256291389465332 66 67 71
0.6287956833839417 -0.15301945805549622 8.719060897827148 89 83 69
-0.19189591705799103 1.7425076961517334 7.796010971069336 57 67 68
-2.249952554702759 1.7822798490524292 8.062767028808594 67 67 77
-2.3528554439544678 1.8699296712875366 8.113813400268555 119 164 193
0.4696843922138214 0.35497161746025085 8.739310264587402 95 102 131
-0.4879952073097229 -0.20390841364860535 8.611583709716797 184 194 186
0.2651248276233673 -0.6814242601394653 8.806282997131348 221 232 216
-0.04666772484779358 -0.4727307856082916 8.546982765197754 192 208 197
-0.43493959307670593 1.2570571899414062 7.679295063018799 27 34 63
-1.2306073904037476 1.5961439609527588 8.242822647094727 33 28 32
-0.7873132824897766 1.731292724609375 7.599058628082275 98 98 108
-0.23579223453998566 1.066081166267395 9.434758186340332 38 35 42
-0.0936553031206131 -0.9327659010887146 9.26931095123291 75 77 76
0.024834884330630302 -0.3351307213306427 8.480762481689453 206 220 205
-1.4940075874328613 1.4946826696395874 8.225982666015625 184 192 179
-0.3835570216178894 -0.4843336343765259 8.651405334472656 188 180 167
-0.35492396354675293 -0.12104197591543198 8.527200698852539 174 186 174
-0.02684330940246582 0.005138234235346317 8.460750579833984 123 137 138
-0.16723115742206573 0.20421262085437775 8.527739524841309 98 117 113
-0.11738719791173935 0.2876095175743103 8.576810836791992 99 118 112
-0.19827483594417572 0.3327276110649109 8.613819122314453 117 108 93
0.5385914444923401 0.013007309287786484 8.661510467529297 112 129 123
-2.2033116817474365 1.6271297931671143 8.21680736541748 155 165 164
-0.11458270251750946 1.7375187873840332 7.872189998626709 93 99 95
0.892504096031189 -0.22400659322738647 9.113092422485352 76 62 62
-0.6303315162658691 -0.1036476120352745 8.694329261779785 162 174 160
-0.23545727133750916 -0.17957785725593567 8.491865158081055 87 92 86
0.6393799185752869 0.20381148159503937 8.817800521850586 42 50 71
-0.2958644926548004 -0.6570086479187012 8.79333209991455 205 191 191
0.04698668420314789 1.7126656770706177 7.9687113761901855 125 144 151
-0.299389123916626 0.35270926356315613 8.634257316589355 119 110 105
-0.4315550625324249 -0.2383223921060562 8.563075065612793 125 107 103
-0.1598045378923416 0.05774141475558281 8.488530158996582 151 174 166
-0.6086580157279968 -0.2253153771162033 8.704671859741211 152 160 149
0.6393799185752869 0.20381148159503937 8.817800521850586 42 50 71
-0.5333876013755798 1.9434843063354492 7.253472328186035 117 132 135
-0.4804355800151825 0.0202442966401577 8.596983909606934 112 124 124
-1.348265290260315 1.5568244457244873 8.193814277648926 113 120 113
0.4334907531738281 -0.22380439937114716 8.595487594604492 166 175 174
-0.6638586521148682 2.09067964553833 7.2827229499816895 80 77 104
0.4951924681663513 0.18921668827533722 8.651762008666992 104 135 155
0.08303011953830719 -0.15690580010414124 8.456581115722656 163 177 177
-0.5192132592201233 -0.25197309255599976 8.634551048278809 65 65 67
-0.457966148853302 2.0079212188720703 7.230410099029541 106 120 131
0.31964346766471863 0.21645133197307587 8.585636138916016 123 146 162
0.6360980868339539 -0.006720957811921835 8.740485191345215 45 46 67
-0.2581094205379486 -0.23322924971580505 8.502740859985352 193 205 203
-0.1648484468460083 -0.6113119721412659 8.6754150390625 232 245 238
0.5858137607574463 0.2503606677055359 8.793195724487305 84 117 158
-0.6063138842582703 -0.004075182601809502 8.675203323364258 150 139 133
-0.3255311846733093 0.27418339252471924 8.590173721313477 117 137 138
-0.49903249740600586 1.3352004289627075 7.60726261138916 103 133 169
0.1738184094429016 1.7197386026382446 8.039900779724121 80 84 95
-1.2290970087051392 1.7796764373779297 7.515588283538818 62 50 96
-0.26681673526763916 -0.21510545909404755 8.512381553649902 88 88 88
-1.4582953453063965 1.371170163154602 9.111592292785645 49 47 48
0.10456547141075134 0.41099998354911804 8.637394905090332 92 116 128
-0.21454043686389923 0.35407915711402893 8.610737800598145 59 57 58
0.43958792090415955 0.3708677589893341 8.725208282470703 27 45 49
-1.4902247190475464 1.597839593887329 8.20132827758789 21 20 18
-0.7201743721961975 1.8934041261672974 7.336162567138672 99 126 156
-0.5360696911811829 1.240615963935852 7.667081356048584 111 149 185
-0.26851534843444824 1.4836993217468262 7.670249938964844 46 81 113
-0.09009915590286255 -0.5607927441596985 8.626627922058105 198 220 208
-0.33025723695755005 -0.07588054984807968 8.521844863891602 49 59 61
0.5434221029281616 -0.4008796513080597 8.734648704528809 149 144 124
0.00813139695674181 -0.5134516358375549 8.568450927734375 121 131 120
0.2586711347103119 -0.518546998500824 8.632996559143066 216 235 229
0.5114875435829163 0.015013824217021465 8.632572174072266 121 117 106
-0.32565751671791077 1.7191365957260132 7.679375648498535 9 9 11
0.6984136700630188 1.3519742488861084 9.280586242675781 51 43 54
-0.4853522777557373 1.6497516632080078 7.586224555969238 19 24 53
0.4696843922138214 0.35497161746025085 8.739310264587402 95 102 131
-1.2739688158035278 1.5290656089782715 8.234726905822754 49 52 57
-1.1735098361968994 1.7741514444351196 7.515453338623047 176 171 175
-0.4198989272117615 -1.0680681467056274 9.6741361618042 136 120 123
-0.43360477685928345 0.18712162971496582 8.612672805786133 133 159 158
-1.4637138843536377 1.5180670022964478 8.201766967773438 57 64 70
-1.1247518062591553 1.5746467113494873 8.315733909606934 31 30 35
-1.0601218938827515 1.8163588047027588 7.428386688232422 78 69 116
-0.082220658659935 0.3238288462162018 8.561827659606934 61 62 66
-0.5607480406761169 -0.3016858994960785 8.672431945800781 178 166 154
0.02644248493015766 -0.6018176674842834 8.64814281463623 193 204 190
-0.06943314522504807 -0.19153949618339539 8.462519645690918 78 82 65
-1.9614737033843994 1.7075833082199097 7.889987945556641 152 148 165
0.12783746421337128 1.60208261013031 8.635433197021484 67 104 86
-1.6125102043151855 1.5303783416748047 8.188573837280273 40 50 49
0.5521772503852844 -0.4142441749572754 8.742382049560547 41 45 46
-0.40650472044944763 1.8235076665878296 7.196580410003662 116 106 115
-1.6115689277648926 1.5297715663909912 8.185565948486328 40 50 49
-0.19453997910022736 -0.19987477362155914 8.496291160583496 156 147 138
0.33362120389938354 0.3165120780467987 8.629220962524414 93 117 143
0.3976123034954071 0.3973657786846161 8.733004570007324 108 132 170
-0.3271621763706207 -0.4812161326408386 8.643704414367676 206 221 218
0.15941452980041504 -0.5279207825660706 8.59355354309082 220 233 216
-1.2667911052703857 1.500585913658142 8.257458686828613 180 179 158
-0.007784711662679911 -0.6483667492866516 8.682637214660645 235 248 228
0.0993555560708046 0.06857892870903015 8.477567672729492 37 49 65
-2.244947671890259 1.927685022354126 8.050246238708496 110 133 167
0.4732208251953125 0.2900102138519287 8.712470054626465 95 108 117
-0.6020705103874207 0.21326811611652374 8.752359390258789 150 165 170
-1.2574868202209473 1.8011456727981567 7.518784523010254 70 68 118
-0.8536335229873657 1.7761238813400269 7.3899455070495605 130 126 141
-0.5985283851623535 1.7588635683059692 7.527476787567139 78 75 84
-0.40458038449287415 1.2297027111053467 8.891400337219238 81 102 107
0.5109437704086304 -0.19780956208705902 8.625704765319824 173 182 165
-1.8649412393569946 1.7158082723617554 7.826690673828125 172 180 216
0.43452367186546326 1.6056041717529297 9.402923583984375 26 27 32
-0.12351606041193008 -0.7848329544067383 8.891404151916504 218 231 214
0.48469677567481995 -0.11918946355581284 8.600071907043457 178 176 163
-0.5753841400146484 -0.3241857588291168 8.677735328674316 190 175 168
-0.5338736176490784 -0.23917289078235626 8.646608352661133 189 192 181
0.16703513264656067 1.8979418277740479 7.811178207397461 81 99 147
-2.370407819747925 1.7548857927322388 8.07198429107666 154 222 255
-0.2770313322544098 -0.2318069040775299 8.505766868591309 169 185 184
-0.10462569445371628 0.3037090003490448 8.552522659301758 68 68 68
-1.076594591140747 1.8688089847564697 7.459456443786621 29 46 56
0.45679762959480286 -0.20826436579227448 8.589534759521484 59 69 61
0.18053440749645233 -0.46237871050834656 8.544700622558594 188 197 176
-0.03111492097377777 0.14946214854717255 8.490612983703613 126 140 140
-1.6676493883132935 1.5071929693222046 8.22276496887207 187 191 177
-0.2980046272277832 2.0216476917266846 7.1498799324035645 87 102 109
-0.38538694381713867 0.17122197151184082 8.596686363220215 156 171 164
-0.37148839235305786 -0.2673766613006592 8.545831680297852 173 169 160
0.6349309086799622 -0.41149091720581055 8.83717155456543 84 64 65
0.3998013734817505 -0.34298357367515564 8.605158805847168 159 173 158
0.5244858860969543 0.024006538093090057 8.638204574584961 50 56 68
0.5110716223716736 0.3586367666721344 8.776844024658203 89 108 151
-0.15627172589302063 -0.6814941763877869 8.739522933959961 228 245 239
0.5385914444923401 0.013007309287786484 8.661510467529297 112 129 123
0.7805971503257751 -0.7238086462020874 9.136934280395508 89 72 80
-1.2323836088180542 1.7439590692520142 7.532243251800537 108 94 107
0.4873286187648773 0.23468181490898132 8.676847457885742 122 149 168
-2.331963539123535 1.9478012323379517 8.110590934753418 99 101 113
-0.23451249301433563 1.739823341369629 7.743666172027588 33 37 38
-0.030305184423923492 0.463031530380249 8.633944511413574 67 69 66
0.3292466700077057 0.2639438211917877 8.61187744140625 94 122 143
-2.2000930309295654 1.6808199882507324 7.923358917236328 107 119 131
-0.05813665688037872 -0.26681190729141235 8.482205390930176 170 178 167
0.4920412003993988 0.37130871415138245 8.77978515625 24 31 60
-0.43665221333503723 1.2779669761657715 7.654329299926758 29 43 70
0.5310827493667603 -1.1046372652053833 9.22314453125 112 104 115
-0.39755621552467346 1.6558555364608765 7.663053035736084 19 23 34
-1.2213667631149292 1.9049750566482544 7.570560455322266 111 127 140
0.6243689656257629 1.6232882738113403 9.279512405395508 108 102 86
0.26292842626571655 0.15638037025928497 8.550121307373047 110 137 148
-1.0993096828460693 1.947704792022705 7.478980541229248 20 37 57
0.45422041416168213 0.19438233971595764 8.650836944580078 132 158 185
-0.28890520334243774 1.8114150762557983 7.2613325119018555 123 118 138
0.26773911714553833 -0.4833311140537262 8.594795227050781 214 237 227
-1.6291742324829102 1.735302448272705 7.722732067108154 175 168 184
-0.14828811585903168 -0.2599738836288452 8.474991798400879 63 61 64
-0.5585562586784363 1.1666736602783203 8.921947479248047 41 77 63
0.36189499497413635 0.049319397658109665 8.551697731018066 147 171 181
-0.20883040130138397 0.2865763008594513 8.573896408081055 62 77 84
0.8768824338912964 -0.861315131187439 9.068964958190918 63 54 59
0.21447598934173584 0.9244852066040039 9.155257225036621 87 93 89
0.6520838141441345 -0.6073893308639526 9.197178840637207 71 59 61
-0.0948418453335762 1.7232712507247925 7.906650066375732 160 175 170
-0.4367508292198181 -0.5785925984382629 8.795344352722168 203 188 185
-1.1862822771072388 1.4918222427368164 8.323612213134766 121 122 108
-0.17188645899295807 -0.3199758529663086 8.502304077148438 73 74 76
-1.308362364768982 1.503895878791809 8.248209953308105 176 184 163
0.0873790755867958 0.4444863796234131 8.654352188110352 82 82 84
-1.0550496578216553 2.0009260177612305 7.459508419036865 52 59 69
-0.43389344215393066 0.13912200927734375 8.595311164855957 102 118 115
-2.043170928955078 1.8722553253173828 7.959596157073975 120 150 184
0.15552107989788055 -0.49817776679992676 8.576606750488281 210 227 219
0.44400742650032043 -0.578437864780426 8.778693199157715 104 121 113
0.17502187192440033 1.7808078527450562 7.950344085693359 134 135 127
-0.6379721164703369 -0.02791311964392662 8.694316864013672 137 128 129
-0.299156129360199 1.4521915912628174 7.663712024688721 166 190 190
-0.38585424423217773 1.2755722999572754 7.688052177429199 23 35 75
-0.5322497487068176 1.1530824899673462 9.04797649383545 143 158 163
0.17080919444561005 -0.2507907450199127 8.477425575256348 166 175 156
0.05532016605138779 1.6630492210388184 8.240498542785645 189 195 193
0.18264442682266235 1.8692669868469238 7.8432135581970215 117 132 127
-0.33460497856140137 -0.19199444353580475 8.5281343460083 166 174 176
0.46703797578811646 0.41220536828041077 8.787846565246582 41 45 80
-0.1613176465034485 -0.25875258445739746 8.493786811828613 78 76 77
-0.12044686824083328 0.12976428866386414 8.489574432373047 120 136 125
0.13389761745929718 1.7782859802246094 7.876538276672363 61 46 65
-0.4008459448814392 0.4949817359447479 8.797829627990723 118 139 132
0.4662730395793915 0.023545823991298676 8.587187767028809 128 119 114
0.42975670099258423 -0.09165097028017044 8.56174087524414 115 108 98
-0.2505002021789551 -0.5354510545730591 8.628398895263672 190 204 191
0.7614744901657104 -1.0014138221740723 9.115663528442383 113 97 97
-0.16723115742206573 0.20421262085437775 8.527739524841309 98 117 113
0.15189580619335175 -0.05047589913010597 8.46473503112793 174 197 187
-1.5730996131896973 1.6986747980117798 7.885119438171387 169 168 182
-0.13501475751399994 -0.25512585043907166 8.49535083770752 157 150 142
-1.1101080179214478 1.5605897903442383 8.32188892364502 20 17 24
-0.9815164804458618 1.5363832712173462 8.395328521728516 81 92 114
-0.21176503598690033 -0.19876180589199066 8.488024711608887 168 170 159
-0.483999639749527 1.4089282751083374 7.607551097869873 152 174 187
0.6848477721214294 -1.055903673171997 9.167807579040527 51 44 52
-0.07859841734170914 1.9213007688522339 7.371395111083984 67 78 124
-0.025327686220407486 -0.6586458683013916 8.676898956298828 151 155 154
0.17502187192440033 1.7808078527450562 7.950344085693359 134 135 127
0.21665143966674805 -0.3973052501678467 8.539396286010742 194 210 200
-0.12894275784492493 1.7171324491500854 7.884139537811279 153 167 152
-0.28935810923576355 -0.7152026891708374 8.84070873260498 227 240 233
0.17874091863632202 -0.563856840133667 8.631488800048828 116 126 128
-0.2693195044994354 -0.0015097070718184114 8.507609367370605 129 139 140
0.34460633993148804 -0.06900607794523239 8.53825855255127 143 151 153
-0.7183312177658081 -0.2352423369884491 8.785933494567871 168 152 136
0.0574604757130146 -0.6124860644340515 8.645369529724121 197 207 206
0.3635801374912262 1.3466770648956299 9.467021942138672 68 52 52
0.5674911141395569 1.6464381217956543 9.329431533813477 52 51 69
-0.359877347946167 -0.16994011402130127 8.511772155761719 176 192 182
-2.3159372806549072 1.9304202795028687 8.108386993408203 121 146 166
0.24939927458763123 -0.09492872655391693 8.493977546691895 158 169 165
0.018726304173469543 -0.7856398224830627 8.888372421264648 181 181 169
0.9642415642738342 1.2730932235717773 9.526610374450684 158 221 255
-0.8493367433547974 1.7551339864730835 7.505868911743164 120 118 139
-1.04648756980896 1.5012601613998413 8.472270011901855 183 195 217
-1.5399491786956787 1.688474416732788 7.873072147369385 168 177 182
0.1689465343952179 -0.03472069650888443 8.479989051818848 137 157 158
0.5068469047546387 0.5398966670036316 8.999945640563965 32 40 61
-0.21644227206707 0.03155737370252609 8.493548393249512 153 169 159
0.1957871913909912 0.3708304762840271 8.634828567504883 91 117 132
-0.0464126281440258 1.764255166053772 7.783958911895752 138 121 129
-0.7775806784629822 1.8421884775161743 7.309974670410156 61 69 115
-0.3839988708496094 0.3286072611808777 8.691617012023926 62 63 58
0.02277263067662716 1.7239142656326294 7.95689582824707 67 71 82
-0.2819749116897583 1.7433110475540161 7.704473495483398 57 55 56
-0.6703541278839111 -0.021727336570620537 8.732419967651367 123 115 112
0.101554274559021 -0.7285956740379333 8.797076225280762 149 155 151
-1.2172586917877197 1.5616613626480103 8.222943305969238 50 53 58
0.18053440749645233 -0.46237871050834656 8.544700622558594 188 197 176
-0.15634962916374207 -0.12916462123394012 8.476778030395508 46 54 65
-0.5583240389823914 1.3984819650650024 7.577156066894531 57 97 133
-0.36651474237442017 -0.20494568347930908 8.540400505065918 176 168 165
-0.2844579815864563 1.602095365524292 7.647665023803711 60 94 121
-0.521145761013031 -0.09899348765611649 8.61372184753418 155 174 168
-1.3121886253356934 1.5118366479873657 8.230002403259277 88 105 113
-0.2980046272277832 2.0216476917266846 7.1498799324035645 87 102 109
0.23859761655330658 -0.3832800090312958 8.536057472229004 65 70 73
-0.1968308389186859 -0.0357530303299427 8.466255187988281 124 138 125
-0.6960047483444214 1.7594176530838013 7.557405948638916 141 132 159
0.24309921264648438 -0.7785593867301941 8.960384368896484 163 170 162
0.3879462778568268 -0.2496202141046524 8.564724922180176 152 164 160
-2.0588948726654053 1.681768774986267 7.944586753845215 43 51 64
0.06051051616668701 1.7206785678863525 7.968928813934326 64 74 86
0.13838785886764526 1.6733320951461792 8.241756439208984 166 174 176
0.1273285150527954 0.4423094093799591 8.654728889465332 103 117 120
-1.139995813369751 1.7710490226745605 7.47792387008667 153 168 197
-0.8982288241386414 1.7511082887649536 7.504122257232666 153 169 185
0.14588399231433868 0.4184930920600891 8.641244888305664 44 53 60
-0.13806702196598053 -0.5705099105834961 8.62079906463623 238 250 246
-0.15627172589302063 -0.6814941763877869 8.739522933959961 228 245 239
0.1981896609067917 1.806477665901184 7.946751594543457 142 145 126
-0.39357683062553406 1.999115228652954 7.198575019836426 108 142 167
0.8200689554214478 0.992068350315094 9.221261978149414 86 75 79
0.11634723097085953 1.7644574642181396 7.89431619644165 59 50 53
-1.596265196800232 1.54387366771698 8.195337295532227 169 175 161
0.5481985807418823 2.025519609451294 8.77710247039795 16 49 116
-0.3893190622329712 0.4745751619338989 8.768545150756836 101 111 102
-2.075169086456299 1.7081156969070435 7.902031421661377 130 156 181
-1.2654792070388794 1.7560633420944214 7.586827754974365 122 96 105
-0.19226697087287903 0.2944098711013794 8.56653881072998 126 138 136
-0.11169232428073883 -0.14125585556030273 8.44896125793457 123 119 110
-0.08877135813236237 0.07395446300506592 8.476136207580566 152 176 178
0.9125908017158508 -0.8128944635391235 9.062084197998047 66 52 49
0.10360593348741531 -0.4075416624546051 8.519347190856934 171 184 177
0.17665530741214752 1.8897532224655151 7.846369743347168 44 61 91
-1.394618272781372 1.5542160272598267 8.188031196594238 28 38 39
-1.298425555229187 1.5474761724472046 8.220742225646973 128 127 123
-0.3184828758239746 1.330201268196106 7.694511890411377 133 163 199
0.905125617980957 -0.5886414647102356 9.111419677734375 99 78 87
0.3917205035686493 0.4724210798740387 8.804105758666992 61 68 94
-1.153588056564331 1.5180445909500122 8.3252534866333 170 174 157
0.20078034698963165 1.8208366632461548 7.928783416748047 70 68 89
0.5533763766288757 -0.029069865122437477 8.653202056884766 107 129 126
0.23149514198303223 0.1293272227048874 8.51826000213623 118 143 150
-0.49589747190475464 0.25012001395225525 8.681282997131348 151 162 146
-0.11205809563398361 -0.24673369526863098 8.47912311553955 136 114 103
-0.5101096034049988 -0.15682418644428253 8.604127883911133 141 158 148
-0.2606576979160309 1.7988098859786987 7.419693946838379 114 102 122
0.26020708680152893 -0.6497754454612732 8.730670928955078 200 212 198
0.3982274532318115 1.856035590171814 8.30820083618164 31 36 76
-1.4974859952926636 1.4519835710525513 8.608059883117676 228 244 244
0.31869927048683167 -0.8497353792190552 9.334172248840332 112 102 111
0.7365206480026245 1.336828589439392 9.259160995483398 127 122 102
-0.17119480669498444 -0.6494742631912231 8.704381942749023 242 253 249
-1.6911897659301758 1.5784696340560913 8.14732837677002 90 100 91
-0.3214220404624939 0.18788902461528778 8.563773155212402 110 125 122
-0.8486176133155823 1.7827463150024414 7.348492622375488 164 153 185
-0.09087464213371277 0.3635132908821106 8.611625671386719 87 71 72
-0.05767280235886574 1.9009708166122437 7.414434432983398 55 57 82
-1.3126342296600342 1.7006982564926147 7.812225818634033 55 56 58
0.18221129477024078 -0.28826525807380676 8.501509666442871 195 212 204
0.13008801639080048 -0.4869385063648224 8.560047149658203 182 194 174
-0.06042388454079628 0.6859803795814514 8.844558715820312 30 32 27
-0.5746798515319824 1.7609024047851562 7.5434746742248535 83 71 75
0.0800781324505806 1.6583011150360107 8.231285095214844 202 219 209
-1.2809498310089111 1.1068636178970337 9.098698616027832 150 128 104
-0.2377554327249527 0.5327933430671692 8.744766235351562 60 60 58
-0.30084532499313354 -0.5999543070793152 8.681973457336426 210 202 189
0.18318259716033936 -0.12167203426361084 8.491832733154297 148 161 151
-0.37536299228668213 1.5294156074523926 7.638984203338623 168 189 194
0.7050932049751282 -0.47390803694725037 9.138235092163086 48 36 38
-1.1732808351516724 2.0578789710998535 7.533928871154785 65 55 108
-0.23903942108154297 -0.3591032326221466 8.5032377243042 184 197 179
0.375108003616333 -0.6237874627113342 8.784858703613281 178 187 182
-0.872212290763855 1.2567225694656372 8.9406156539917 143 127 101
-2.087165594100952 1.8585745096206665 7.991705894470215 128 163 185
0.08683209121227264 -0.7559448480606079 8.828445434570312 139 145 145
0.9182600975036621 -0.4332658648490906 9.08770751953125 84 68 79
-0.38585424423217773 1.2755722999572754 7.688052177429199 23 35 75
-1.2370249032974243 1.9143126010894775 7.551480770111084 136 171 191
0.048385702073574066 0.5331243872642517 8.714221954345703 69 65 79
0.5283361077308655 0.37395891547203064 8.817878723144531 36 43 85
-0.43680647015571594 1.5436458587646484 7.621952533721924 66 86 123
-0.46067264676094055 0.23168633878231049 8.655488967895508 152 163 155
-0.2693195044994354 -0.0015097070718184114 8.507609367370605 129 139 140
0.5533763766288757 -0.029069865122437477 8.653202056884766 107 129 126
0.01983571983873844 -0.6215474605560303 8.66100788116455 229 241 239
0.2689215838909149 -0.5004300475120544 8.59351634979248 203 222 220
0.3772249221801758 -0.9644657969474792 9.294144630432129 116 102 101
-0.02026445046067238 0.2183777540922165 8.507010459899902 113 130 122
-2.279745101928711 1.9539669752120972 8.077898979187012 75 84 89
-0.4740940034389496 1.2050832509994507 8.888084411621094 43 80 63
-0.6075985431671143 -0.2796599566936493 8.702594757080078 174 164 155
-0.7355082631111145 -0.19591963291168213 8.808484077453613 165 151 140
-0.37181371450424194 0.5469212532043457 8.818995475769043 92 103 97
-0.6614381670951843 -0.10151099413633347 8.740046501159668 76 80 83
-1.2855446338653564 2.0578651428222656 7.599383354187012 83 81 121
-1.037609338760376 1.7317707538604736 7.480984687805176 43 45 42
-0.007098941598087549 1.7456064224243164 7.939718723297119 141 151 163
-0.8045618534088135 1.799889087677002 7.635361671447754 151 133 147
-0.5513114929199219 -0.2827066481113434 8.64376449584961 107 98 89
-0.5220491290092468 0.26210302114486694 8.697599411010742 99 113 126
-0.5001920461654663 0.017090944573283195 8.608244895935059 157 165 168
0.13218027353286743 1.8436299562454224 7.7806878089904785 136 139 130
0.101554274559021 -0.7285956740379333 8.797076225280762 149 155 151
0.3879462778568268 -0.2496202141046524 8.564724922180176 152 164 160
-0.17891354858875275 1.8145471811294556 7.463011264801025 135 133 144
-1.556583046913147 1.678393006324768 7.886693477630615 58 59 79
-0.5682147145271301 -0.1914963722229004 8.634415626525879 175 191 188
-0.12256795167922974 -0.6044052839279175 8.655760765075684 236 251 244
-0.2627207934856415 2.127558708190918 7.093225955963135 59 57 97
-0.42411279678344727 0.25447511672973633 8.641153335571289 155 172 166
-1.1180763244628906 1.6968679428100586 7.765956878662109 57 58 60
-0.48745936155319214 0.21614736318588257 8.64916706085205 93 90 85
-0.2441006749868393 2.139503240585327 7.07211971282959 95 83 133
0.14947618544101715 0.895125687122345 9.10229778289795 77 84 66
0.8821263313293457 -0.18074896931648254 9.104148864746094 69 54 57
-2.249962329864502 1.7489262819290161 8.026266098022461 38 62 100
-1.125461459159851 1.7117881774902344 7.771620750427246 150 169 184
0.8892735242843628 -0.20364020764827728 9.100139617919922 132 111 110
0.11634533852338791 -0.273122102022171 8.48853588104248 166 178 164
0.0993555560708046 0.06857892870903015 8.477567672729492 37 49 65
-0.19196900725364685 -0.7170412540435791 8.78782844543457 148 161 154
-0.18231220543384552 0.053534116595983505 8.468395233154297 153 166 159
0.62770676612854 0.2298741191625595 8.809744834899902 119 152 183
-2.3752572536468506 1.6554566621780396 8.090448379516602 152 165 174
-1.6186399459838867 1.6685551404953003 8.147531509399414 151 164 173
-1.0182777643203735 2.0833241939544678 7.505211353302002 70 66 103
0.4869820475578308 -0.5163107514381409 8.758932113647461 173 156 136
-0.6763755679130554 -0.09533853828907013 8.728991508483887 171 171 169
0.15816417336463928 1.7731040716171265 7.941032886505127 53 48 55
0.15991096198558807 1.9948902130126953 7.824116230010986 69 95 146
0.8817421197891235 -0.6555478572845459 9.106348037719727 128 109 111
-0.6118500232696533 0.028022324666380882 8.692752838134766 126 111 108
0.7165789008140564 -0.9302573800086975 9.152530670166016 110 104 108
0.8808931112289429 -0.15665335953235626 9.09492301940918 97 91 93
0.15023452043533325 -0.4406297504901886 8.535418510437012 183 192 189
0.5352031588554382 0.356410950422287 8.797503471374512 97 135 174
-0.3794310986995697 1.9472414255142212 7.153407573699951 111 150 179
-1.0191969871520996 1.4785194396972656 8.433172225952148 99 110 130
0.16703513264656067 1.8979418277740479 7.811178207397461 81 99 147
0.7584944367408752 -0.7668073177337646 9.152804374694824 96 85 93
0.1592835783958435 0.5994248986244202 8.804854393005371 24 21 30
0.6720792651176453 -0.22549429535865784 8.774785995483398 64 52 64
-0.1959085315465927 0.06907404959201813 8.501133918762207 123 145 132
-2.087165594100952 1.8585745096206665 7.991705894470215 128 163 185
-1.5169527530670166 1.793609619140625 7.660866737365723 61 67 117
-0.6577637195587158 0.13529209792613983 8.748865127563477 70 69 65
-0.5280065536499023 -0.2738456428050995 8.641347885131836 156 156 148
-0.8538954257965088 1.7730786800384521 7.438604831695557 138 133 153
0.053678981959819794 -0.7881158590316772 8.900862693786621 167 162 158
-0.40889042615890503 2.028024196624756 7.221728324890137 122 147 167
-0.17205891013145447 -0.2735849916934967 8.490988731384277 66 68 63
-0.35404065251350403 1.720922827720642 7.642698764801025 98 115 105
0.13389761745929718 1.7782859802246094 7.876538276672363 61 46 65
0.1947951763868332 1.7498396635055542 8.034018516540527 44 49 68
-0.029895346611738205 1.7701928615570068 7.780608654022217 79 63 74
-0.41296228766441345 0.17684777081012726 8.614272117614746 139 155 144
-0.38282185792922974 1.2499353885650635 7.706277847290039 31 40 79
0.8085415959358215 -0.32217347621917725 9.144512176513672 44 39 43
-0.21582424640655518 1.2130569219589233 9.313226699829102 65 79 79
0.4014650881290436 1.8791909217834473 8.307899475097656 41 38 67
0.31693294644355774 1.7344703674316406 8.326532363891602 79 80 84
0.12356065958738327 0.25987330079078674 8.550399780273438 34 58 70
0.37517738342285156 0.531850278377533 8.846491813659668 59 59 71
-0.39278489351272583 1.9980370998382568 7.1943511962890625 108 142 167
-0.8744902014732361 1.7141480445861816 7.5723443031311035 120 130 142
0.7905310988426208 -0.5263693332672119 9.139756202697754 96 79 85
-0.12021797150373459 1.8717962503433228 7.274652004241943 102 78 100
-0.18393683433532715 -0.48162010312080383 8.58399486541748 104 112 114
-0.19196900725364685 -0.7170412540435791 8.78782844543457 148 161 154
0.20318688452243805 1.7558114528656006 8.032841682434082 30 28 41
0.1632375866174698 1.8712409734725952 7.812572956085205 104 110 124
0.003944959491491318 1.9149686098098755 7.475883960723877 35 49 86
-1.5203226804733276 1.5954605340957642 8.20389175415039 45 44 40
-0.5429806113243103 1.6602548360824585 7.491013050079346 24 34 44
-0.3191034495830536 -0.7122747302055359 8.83876895904541 218 238 227
-0.5476612448692322 1.3866888284683228 7.629079341888428 58 77 120
-0.2893944978713989 -0.8875941038131714 9.327887535095215 24 25 30
0.8421364426612854 -0.35436686873435974 9.154629707336426 78 63 66
-0.736311674118042 0.1071312204003334 8.852110862731934 74 88 89
0.6842828989028931 -0.6740185618400574 9.200691223144531 107 91 94
-0.056165244430303574 1.7740883827209473 7.725155353546143 104 80 104
-0.32729628682136536 0.566433846950531 8.848722457885742 93 96 87
-0.7726162672042847 1.9503613710403442 7.367364883422852 116 144 165
-0.534039318561554 1.9761967658996582 7.2417378425598145 109 150 170
0.043978165835142136 1.4658689498901367 8.652557373046875 55 87 102
-0.310344934463501 -0.27934402227401733 8.532313346862793 168 173 167
-0.18429628014564514 -0.18006886541843414 8.484875679016113 151 152 138
0.18233732879161835 0.6544488668441772 8.86998176574707 62 60 71
0.2227068394422531 -0.33580926060676575 8.516403198242188 161 172 164
0.436205118894577 -1.0041978359222412 9.276361465454102 125 110 115
0.1799517571926117 -0.049065109342336655 8.461442947387695 167 189 186
-0.44178059697151184 0.37485963106155396 8.723690032958984 123 131 116
-1.2377235889434814 1.0318517684936523 9.239617347717285 169 167 168
-0.6813098192214966 1.9681665897369385 7.325361728668213 112 122 131
-0.18393683433532715 -0.48162010312080383 8.58399486541748 104 112 114
-0.002231005346402526 1.6469178199768066 8.2776460647583 203 225 213
0.36609622836112976 0.14602302014827728 8.586252212524414 106 125 140
0.369945228099823 0.5766300559043884 8.895055770874023 32 28 43
-1.0927698612213135 1.7218767404556274 7.74301815032959 101 114 123
-0.6703541278839111 -0.021727336570620537 8.732419967651367 123 115 112
0.8496271371841431 -0.9996744990348816 9.009928703308105 38 38 48
0.4654274880886078 -0.8253536820411682 9.284867286682129 108 102 102
-1.6032661199569702 1.6821485757827759 7.931275844573975 62 72 64
0.609250545501709 0.3080224394798279 8.937979698181152 90 134 171
-0.004524416755884886 0.8734227418899536 9.199121475219727 15 17 14
-0.2978762984275818 1.7694767713546753 7.4239020347595215 112 106 120
-0.268140971660614 1.7581628561019897 7.69563102722168 103 107 118
-0.9711580276489258 1.9247376918792725 7.430750846862793 55 69 104
-0.6208106875419617 1.753706932067871 7.568421363830566 88 103 106
0.6574275493621826 0.1741386204957962 8.84432315826416 64 81 107
0.03207993134856224 -0.08152475953102112 8.44770336151123 159 171 171
-0.3707326650619507 -0.16794422268867493 8.52045726776123 168 187 185
-0.3171466886997223 -0.22934946417808533 8.506843566894531 165 180 177
-0.2877222001552582 -0.698649525642395 8.833516120910645 112 123 119
-0.3798469603061676 1.745903730392456 7.632932662963867 52 51 59
0.17285919189453125 1.9807020425796509 7.848426818847656 49 53 100
-0.5453463196754456 1.2505109310150146 7.657464027404785 44 49 69
-0.6986231803894043 0.2514585554599762 8.877190589904785 119 141 154
0.4691014587879181 -0.32792404294013977 8.6405029296875 177 189 175
-0.32432276010513306 1.66135573387146 7.655224800109863 32 43 63
-0.0031824875622987747 -0.16262279450893402 8.45972728729248 142 152 143
-0.7358550429344177 1.048178791999817 9.194145202636719 160 140 116
-0.23675023019313812 1.6007139682769775 7.690062522888184 60 84 120
-1.609872817993164 1.5210192203521729 8.23331356048584 198 207 202
0.12319082766771317 1.4513083696365356 8.865120887756348 195 202 208
0.2954157590866089 0.5141041874885559 8.773378372192383 51 63 77
-2.073997735977173 2.00068998336792 7.967090606689453 22 28 52
-0.6058948636054993 1.3494189977645874 7.616428852081299 117 150 195
-0.06272286921739578 0.04788494110107422 8.461431503295898 96 107 109
-1.2438617944717407 1.572346806526184 8.234856605529785 88 94 94
-0.4684543013572693 -0.4027448892593384 8.658544540405273 193 181 169
0.6116092801094055 0.010962462052702904 8.698266983032227 134 134 132
0.05985267460346222 1.7220985889434814 7.974604606628418 64 74 86
0.8031772375106812 -0.7685130834579468 9.116683006286621 84 78 80
-0.19220946729183197 0.5698661804199219 8.741875648498535 80 73 65
-0.9983150362968445 1.6977125406265259 7.945891857147217 160 148 168
-0.9665108323097229 1.8303486108779907 7.397265911102295 72 98 121
0.10394831746816635 0.5672357678413391 8.669269561767578 69 66 61
0.7285035848617554 0.64167720079422 9.2520751953125 49 50 55
-0.10213528573513031 -0.20122352242469788 8.479101181030273 124 104 97
-1.0759713649749756 1.4655905961990356 8.530441284179688 138 146 149
-0.04046609252691269 1.8310712575912476 7.517772197723389 127 119 132
-1.3775635957717896 2.0295393466949463 7.628679275512695 86 85 103
0.16336596012115479 0.4341377317905426 8.662409782409668 99 111 111
0.4520181119441986 1.3681005239486694 9.388906478881836 82 81 79
0.4696473181247711 1.6964260339736938 8.785543441772461 122 90 105
-0.5157141089439392 -0.3722364902496338 8.669361114501953 187 180 174
-1.7165273427963257 1.6856178045272827 7.993384838104248 143 145 166
-0.2713254690170288 -0.6941772699356079 8.779994010925293 137 142 136
0.39002084732055664 0.5214564204216003 8.845908164978027 36 33 42
-2.065458059310913 1.726707100868225 7.897163391113281 23 35 77
-0.030672011896967888 1.9807955026626587 7.4203948974609375 60 59 93
-0.4247494041919708 1.66420316696167 7.623191833496094 39 47 66
0.7051505446434021 0.2258792519569397 8.991576194763184 105 127 141
0.8231328129768372 -0.6108315587043762 9.119199752807617 93 68 71
-0.04850399121642113 0.18032905459403992 8.494206428527832 109 134 131
-0.3000686466693878 0.5712665915489197 8.812042236328125 57 58 53
-0.21253372728824615 1.5850586891174316 7.666304588317871 54 87 120
-0.2874208688735962 0.5162613987922668 8.771093368530273 130 125 105
0.17285919189453125 1.9807020425796509 7.848426818847656 49 53 100
-1.5153319835662842 1.6950033903121948 7.883750915527344 40 41 43
0.561042845249176 -0.8373496532440186 9.210857391357422 129 109 118
0.42391490936279297 0.4856157898902893 8.831355094909668 57 65 78
-0.32245495915412903 1.8517895936965942 7.1221442222595215 143 134 155
0.7825278639793396 -0.5774528384208679 9.145626068115234 84 73 77
0.17757050693035126 1.920008897781372 7.851034164428711 40 37 64
-1.0053775310516357 1.9779375791549683 7.429348468780518 64 88 116
0.08127440512180328 0.33095937967300415 8.55008602142334 127 156 170
-1.4257153272628784 1.575619101524353 8.20826244354248 36 41 44
-0.93781977891922 1.0043081045150757 9.125761985778809 53 82 78
-0.32041507959365845 -0.6932539939880371 8.8045015335083 119 125 121
-0.06526302546262741 1.8661961555480957 7.411860942840576 82 78 101
-1.5534939765930176 1.434138298034668 8.648209571838379 128 151 185
-0.9642548561096191 1.7380614280700684 7.42962646484375 95 93 94
-0.6812004446983337 1.741041898727417 7.611913681030273 77 73 87
0.055933330208063126 1.758010745048523 7.960024833679199 121 129 152
-0.6758124828338623 -0.28072261810302734 8.776763916015625 167 157 147
-0.6178904175758362 -0.3187471628189087 8.70500373840332 167 147 136
-0.7458192706108093 -0.22675515711307526 8.836618423461914 167 154 135
-0.2574293911457062 1.6947240829467773 7.73878288269043 42 51 66
0.2474967986345291 -0.03550584614276886 8.481064796447754 129 132 137
-0.3685966432094574 0.35953742265701294 8.672542572021484 114 113 108
-0.1631508618593216 0.3842463493347168 8.607348442077637 54 47 55
-2.7051541805267334 2.1211659908294678 6.901371955871582 156 206 255
0.33447036147117615 0.399639368057251 8.702141761779785 110 129 127
-0.6734437942504883 1.503870964050293 7.6095404624938965 107 138 182
0.17781853675842285 -0.930942714214325 9.3739595413208 67 52 57
0.1864994913339615 0.9367071390151978 9.10575008392334 107 107 95
-0.04850399121642113 0.18032905459403992 8.494206428527832 109 134 131
-0.9478572010993958 1.7054810523986816 7.948459625244141 136 137 157
-0.9961974024772644 1.9033986330032349 7.41274881362915 31 37 73
0.1798490732908249 0.5949825048446655 8.812803268432617 47 49 62
-0.02026445046067238 0.2183777540922165 8.507010459899902 113 130 122
0.5044519305229187 1.7864713668823242 8.626169204711914 48 35 63
0.8813033699989319 -1.0374807119369507 9.058481216430664 152 156 123
0.7047989964485168 1.6856815814971924 9.208199501037598 86 75 83
-1.3479076623916626 1.6709744930267334 7.803289413452148 145 153 164
-0.6577345728874207 1.7226349115371704 7.610286235809326 26 27 32
0.5736461281776428 0.14351531863212585 8.717972755432129 119 140 167
-1.1122969388961792 1.798095703125 7.450697422027588 51 51 87
-0.16943010687828064 0.5546015501022339 8.740751266479492 60 51 52
-0.14371484518051147 1.7653992176055908 7.76173734664917 83 71 81
0.8541416525840759 -1.0745577812194824 9.041428565979004 90 97 90
-0.6150906682014465 0.23672397434711456 8.768723487854004 94 111 118
0.7386206984519958 1.7207107543945312 9.191977500915527 99 90 109
-0.5490280985832214 -0.9615528583526611 9.702031135559082 97 91 95
0.5306369662284851 1.7089954614639282 8.771479606628418 111 106 103
0.7543531656265259 0.8444157242774963 9.24734878540039 65 67 66
-0.07283706218004227 0.38929885625839233 8.564512252807617 76 68 66
-1.0820990800857544 1.7276655435562134 7.704369068145752 146 163 170
-0.12667147815227509 -0.3102107644081116 8.46311092376709 191 203 191
-0.0569966696202755 1.7857661247253418 7.707756042480469 151 149 160
-1.0993672609329224 1.8738117218017578 7.472249984741211 90 103 112
-0.8477280139923096 1.7182607650756836 7.858248710632324 144 153 170
-1.082122802734375 1.1364411115646362 9.140975952148438 20 28 31
0.385933518409729 1.8982826471328735 8.281036376953125 33 41 87
0.11634533852338791 -0.273122102022171 8.48853588104248 166 178 164
0.5366128087043762 -0.8127626180648804 9.233813285827637 112 104 102
-0.04465858265757561 -0.7808393836021423 8.86178970336914 229 240 226
-0.5565747618675232 1.763551950454712 7.504949569702148 128 113 134
0.6936261653900146 -0.9950367212295532 9.150157928466797 77 64 71
-0.18644241988658905 0.9150922894477844 9.340047836303711 32 40 42
0.152356818318367 0.16188932955265045 8.52622127532959 113 138 142
-0.9286061525344849 1.4129819869995117 8.326750755310059 222 232 255
-0.4744378924369812 -0.5716087818145752 8.798728942871094 196 182 169
0.7462590336799622 0.44486913084983826 9.175658226013184 51 46 52
1.0749754905700684 -1.029107928276062 9.233100891113281 95 106 100
-0.03871515020728111 1.8187936544418335 7.550520896911621 105 85 96
0.00969511829316616 1.807141900062561 7.641758918762207 87 76 92
0.42142051458358765 0.3915814757347107 8.734478950500488 75 91 107
0.5914986729621887 0.2699689269065857 8.810202598571777 36 64 104
0.17062406241893768 1.670082926750183 8.255136489868164 170 182 180
-0.7817769646644592 1.7637591361999512 7.492287635803223 134 120 135
0.8231328129768372 -0.6108315587043762 9.119199752807617 93 68 71
-0.32771655917167664 0.3511066436767578 8.654308319091797 125 118 108
0.04981882497668266 1.8025822639465332 7.686525344848633 134 101 120
0.00840810313820839 1.7733659744262695 7.829181671142578 132 139 145
0.7278980016708374 -0.7429050803184509 9.147069931030273 90 78 80
0.21898706257343292 1.926938533782959 7.933614253997803 90 106 132
-0.21419623494148254 0.22547122836112976 8.534692764282227 134 155 158
-0.18945027887821198 0.3960014879703522 8.628870010375977 117 102 105
-1.9479197263717651 1.6502383947372437 8.295356750488281 135 131 148
0.022485045716166496 1.9511890411376953 7.502521991729736 40 44 91
0.39767560362815857 0.16717778146266937 8.607629776000977 144 168 172
-1.1857017278671265 1.6994215250015259 7.7679853439331055 173 178 184
0.11634533852338791 -0.273122102022171 8.48853588104248 166 178 164
-0.2545948922634125 0.3887152373790741 8.61931324005127 80 69 67
-2.295149326324463 1.9020057916641235 8.074395179748535 70 76 98
-1.0944252014160156 1.9762864112854004 7.474924564361572 67 71 74
-0.9447145462036133 1.713765025138855 7.529618263244629 51 54 35
-0.29966771602630615 1.8411188125610352 7.10915994644165 125 112 132
-0.9642548561096191 1.7380614280700684 7.42962646484375 95 93 94
0.5390159487724304 -0.5592411160469055 8.861639976501465 173 147 124
-0.6265215277671814 0.2519979476928711 8.775096893310547 130 160 158
-1.178458333015442 1.612422227859497 8.24074649810791 11 15 14
-0.9388778805732727 1.7613879442214966 7.362891674041748 128 139 169
0.6750462651252747 0.21832275390625 8.89503288269043 107 132 139
0.12225285917520523 -0.40992051362991333 8.520190238952637 212 231 225
-0.32621070742607117 1.7767229080200195 7.525254249572754 126 118 131
0.40623652935028076 1.4030516147613525 9.432950973510742 46 46 48
-0.6513829231262207 1.7530566453933716 7.560995578765869 80 82 97
