ply
format ascii 1.0
element vertex 698
property float x
property float y
property float z
property uchar red
property uchar green
property uchar blue
end_header
-0.2483941614627838 -0.42773327231407166 7.2486114501953125 208 184 174
-0.24403923749923706 -0.18900297582149506 7.107489585876465 169 157 145
-0.3278934061527252 1.7263503074645996 6.118850231170654 86 75 118
0.10557767748832703 0.3266856372356415 7.149132251739502 97 107 99
-0.2181999534368515 0.16847197711467743 7.122219085693359 91 99 101
-0.785263180732727 1.6725026369094849 6.25473165512085 51 43 66
-1.4318469762802124 1.5685051679611206 6.483321666717529 111 153 178
0.10664015263319016 -0.2631165385246277 7.075204849243164 201 212 206
-0.08053243905305862 -0.22218231856822968 7.077467918395996 185 196 190
0.3160218894481659 0.20852865278720856 7.1512579917907715 132 160 181
0.1659805029630661 -0.10620102286338806 7.061948776245117 181 201 192
-0.21482078731060028 1.0682059526443481 6.3942365646362305 33 33 41
0.3475794792175293 0.05701243877410889 7.146045207977295 51 56 75
-0.445620596408844 1.6428037881851196 6.1964216232299805 94 110 144
-1.129655122756958 1.6345938444137573 6.390270233154297 135 158 189
0.18564631044864655 -0.3800390660762787 7.141368865966797 203 219 206
-0.28268346190452576 0.10410461574792862 7.130204677581787 79 91 77
-0.299103707075119 0.006204286124557257 7.122899055480957 83 95 95
-0.003036975162103772 -0.08318834751844406 7.058701515197754 141 139 118
-0.02531416341662407 -0.23600077629089355 7.075465202331543 202 218 205
0.06580592691898346 0.2563442587852478 7.113973140716553 113 127 128
-0.1707768589258194 1.1164392232894897 6.371596336364746 103 136 171
0.007621349301189184 -0.16441228985786438 7.051212787628174 148 144 141
0.20087191462516785 0.07412704080343246 7.075448989868164 150 172 170
-0.18425124883651733 -0.23104676604270935 7.105653762817383 162 155 147
0.22448807954788208 -0.020544160157442093 7.066878795623779 139 154 147
0.22008466720581055 1.3150056600570679 7.170193672180176 141 151 127
-0.5752935409545898 1.66032874584198 6.195429801940918 55 81 96
0.484781950712204 -0.1442953497171402 7.199951648712158 69 78 73
-1.024518370628357 1.6196811199188232 6.353052616119385 130 163 180
-0.40523457527160645 1.5624505281448364 6.143463611602783 98 121 139
0.7855528593063354 -0.8620494604110718 7.565284729003906 104 107 98
-0.0500764474272728 -0.13654346764087677 7.053322792053223 79 79 87
-0.20040114223957062 1.1770161390304565 6.3392534255981445 56 72 106
-0.29710689187049866 -0.04330667853355408 7.127320766448975 165 175 176
-0.15244564414024353 1.3376617431640625 6.332718372344971 71 106 144
-0.9295601844787598 -0.12060646712779999 8.1480712890625 111 99 99
-0.15446916222572327 1.1724534034729004 6.355703353881836 149 182 187
0.01647467352449894 1.316535472869873 6.400798320770264 60 85 115
0.15363338589668274 0.7508719563484192 7.5806450843811035 86 83 74
-0.31709787249565125 0.23567433655261993 7.195568084716797 139 157 157
-0.02531416341662407 -0.23600077629089355 7.075465202331543 202 218 205
-0.05953505262732506 -0.24605503678321838 7.086429595947266 163 180 164
-0.8047551512718201 1.2457711696624756 6.838199615478516 108 112 113
-0.33034220337867737 -0.29891034960746765 7.2010321617126465 192 173 159
-0.0851212814450264 1.2839231491088867 6.382471561431885 75 87 125
-0.1678420603275299 -0.1306338757276535 7.082763195037842 170 168 153
-0.7942546606063843 0.9555208683013916 7.464865207672119 28 32 33
0.30976879596710205 0.2827622592449188 7.175649642944336 115 151 175
0.12243158370256424 0.36366841197013855 7.185978412628174 83 82 87
0.20478805899620056 0.0981302261352539 7.084278583526611 156 173 163
-0.17864719033241272 1.1034427881240845 6.374736309051514 110 137 144
-0.8708953857421875 1.257976770401001 6.768722057342529 177 182 159
0.4906087815761566 0.13045114278793335 7.236145973205566 140 156 169
0.14064612984657288 0.06946790218353271 7.0600080490112305 169 185 184
0.4843626320362091 -0.09290853142738342 7.187435626983643 148 163 156
-0.9699499011039734 1.299215316772461 6.710336208343506 39 47 49
-0.9383800625801086 1.41276216506958 6.44103479385376 131 145 156
0.7679583430290222 -0.8111938834190369 7.569854259490967 155 161 123
0.6022959351539612 -0.820525586605072 7.618886947631836 55 60 54
-0.16097402572631836 -0.4382575452327728 7.2118000984191895 219 201 199
-0.23765899240970612 -0.14265258610248566 7.096654415130615 159 156 137
0.2673596739768982 -0.3684734106063843 7.163808822631836 215 227 213
-0.13519032299518585 1.1933389902114868 6.360945701599121 65 72 88
0.19902759790420532 -0.09816354513168335 7.066563606262207 167 179 179
-0.9782975316047668 1.4762709140777588 6.2947773933410645 41 55 104
-0.07754587382078171 0.9389968514442444 7.711477279663086 39 50 42
-0.011348040774464607 1.3580037355422974 6.398352146148682 17 18 38
-0.873733401298523 1.4145110845565796 6.422391891479492 46 52 52
-0.17401114106178284 -0.1807626634836197 7.091390132904053 167 169 155
0.3125927746295929 -0.282525897026062 7.144642353057861 67 76 83
0.053429536521434784 -0.3067241311073303 7.096863269805908 204 220 210
-0.7651525735855103 1.4803235530853271 6.226044654846191 74 66 117
-0.713146448135376 0.6161147356033325 8.12780475616455 78 65 72
0.13168148696422577 -0.10157615691423416 7.044821262359619 145 157 153
-0.0014777041506022215 1.6046082973480225 6.0190606117248535 124 150 175
0.3903563320636749 1.072479486465454 7.831535339355469 69 68 73
0.8056138157844543 -0.8789742588996887 7.551910400390625 190 193 172
0.043422210961580276 -0.4183678925037384 7.149547576904297 204 216 204
-0.166695237159729 0.17730771005153656 7.11737585067749 147 173 172
-0.5926494002342224 1.661982774734497 6.191587924957275 43 52 59
0.5033462643623352 -0.7196593880653381 7.677328109741211 113 87 86
-0.2774296700954437 0.23734235763549805 7.1766862869262695 147 162 159
-0.04172397032380104 0.071608766913414 7.055420398712158 130 147 137
0.38208505511283875 0.1985567808151245 7.1770405769348145 128 151 165
-1.0960952043533325 1.2937411069869995 6.700560092926025 175 179 165
-1.0484617948532104 1.4868838787078857 6.305905342102051 72 79 121
-1.2267343997955322 1.6693220138549805 6.405697345733643 94 83 126
-0.030803726986050606 1.7598484754562378 6.023285388946533 89 81 118
-0.1338467001914978 -0.07462040334939957 7.0710272789001465 157 174 166
-0.16870272159576416 0.308361679315567 7.173782825469971 49 58 53
-0.2041764259338379 1.0805749893188477 6.393546104431152 184 219 225
-0.1359979212284088 -0.0958443209528923 7.067452430725098 171 179 168
-0.06301508098840714 0.019057217985391617 7.052651882171631 134 148 133
0.3120024502277374 -0.40976226329803467 7.203248023986816 220 237 221
-0.6142781376838684 1.4664647579193115 6.2126970291137695 150 174 178
-0.3773629367351532 -0.18773315846920013 7.190539360046387 178 163 158
-0.7091322541236877 1.4629573822021484 6.220663547515869 117 100 116
0.6877117156982422 -0.5811441540718079 7.643413543701172 121 117 118
0.0011674216948449612 -0.23859797418117523 7.0711259841918945 194 209 202
0.2706601917743683 -0.31233489513397217 7.172464847564697 211 229 217
0.10114283114671707 0.2783994674682617 7.1141839027404785 127 149 147
-0.17308983206748962 0.32307350635528564 7.179253101348877 117 110 104
0.13727834820747375 0.3270847797393799 7.154726982116699 119 138 144
0.393179714679718 0.04848602041602135 7.1357245445251465 66 66 76
-1.0982710123062134 1.6763981580734253 6.36905574798584 92 91 125
-0.37958794832229614 0.22737979888916016 7.226808071136475 103 115 113
-0.21389509737491608 -0.19797396659851074 7.119236469268799 176 170 158
0.668439507484436 0.4685753583908081 7.699941635131836 72 61 77
-0.9185055494308472 1.4160315990447998 6.439915180206299 43 49 49
-1.0842132568359375 0.8743087649345398 7.752488613128662 180 164 139
-0.9987037181854248 1.413840651512146 6.458032131195068 39 41 40
-0.031771838665008545 0.8100370168685913 7.724693298339844 25 26 30
-0.022536998614668846 -0.17881281673908234 7.065654754638672 156 159 140
-0.0023849583230912685 0.14095185697078705 7.087634086608887 154 174 165
-0.05096852406859398 -0.1540047824382782 7.06192684173584 170 176 176
-1.1287791728973389 1.3057777881622314 6.692107677459717 182 185 176
-0.05912968888878822 1.150115966796875 6.406935691833496 50 68 116
-0.39061346650123596 0.1997184157371521 7.2256293296813965 85 101 100
0.07472796738147736 0.7308698892593384 7.6232147216796875 12 18 18
0.19745169579982758 1.4113023281097412 6.655149936676025 30 34 35
0.15428172051906586 -0.20432236790657043 7.071827411651611 199 210 194
0.1726396530866623 -0.2862647473812103 7.1044921875 165 183 169
-1.1149184703826904 1.3509043455123901 6.680512428283691 17 15 18
-0.9903369545936584 1.271836280822754 6.716256141662598 52 66 79
0.141447514295578 -0.37340331077575684 7.1287431716918945 213 226 206
-0.038901109248399734 -0.7536236047744751 7.727972507476807 23 25 20
-0.14659765362739563 -0.35151469707489014 7.146575450897217 209 224 219
0.14675278961658478 -0.17798824608325958 7.060715675354004 168 181 161
0.027903888374567032 1.4385861158370972 6.47275447845459 43 45 40
-0.29793739318847656 0.24674361944198608 7.177445888519287 105 114 113
-0.8582814931869507 1.2921192646026611 6.742728233337402 117 122 116
0.23659798502922058 0.15929895639419556 7.105441093444824 137 170 179
0.4910871982574463 -0.2923727035522461 7.254996299743652 188 191 182
-1.0629427433013916 1.6367924213409424 6.357416152954102 132 158 185
-1.337282419204712 1.6484071016311646 6.439425945281982 54 48 74
-0.7412523031234741 1.6994293928146362 6.256033420562744 105 90 133
-0.013132338412106037 1.633099913597107 5.991176128387451 115 135 159
-1.454412579536438 1.4359921216964722 6.434638500213623 139 160 189
-0.5820993781089783 -0.7553872466087341 8.012693405151367 92 81 87
-0.2078123241662979 -0.36164405941963196 7.169308662414551 206 193 187
-0.3167211413383484 -0.024297639727592468 7.133570194244385 160 170 169
-0.873733401298523 1.4145110845565796 6.422391891479492 46 52 52
0.5017800331115723 1.3243387937545776 7.789937496185303 135 137 113
-0.10491155087947845 -0.44174924492836 7.198105812072754 210 214 200
0.10557767748832703 0.3266856372356415 7.149132251739502 97 107 99
-0.46747931838035583 -0.25679874420166016 7.285271167755127 185 178 160
-0.9635246992111206 1.4284443855285645 6.432455539703369 157 157 183
-0.3511325716972351 -0.32325229048728943 7.237078666687012 195 191 179
0.2286049723625183 -0.4527640640735626 7.223762512207031 219 239 230
0.2696593999862671 -0.03054673783481121 7.087769985198975 143 154 137
-0.9142906069755554 -0.18522527813911438 8.121940612792969 115 101 114
0.3389838635921478 0.15182535350322723 7.148499011993408 115 145 156
0.4301125705242157 0.32310575246810913 7.277451992034912 40 51 71
0.1244543194770813 -0.38351869583129883 7.140125274658203 125 139 124
-1.4509096145629883 1.6696739196777344 6.4745659828186035 26 23 50
0.03637710586190224 1.4378979206085205 6.493424415588379 39 43 44
-0.022265510633587837 -0.06057265028357506 7.054548740386963 121 134 125
-0.06405971944332123 -0.18726907670497894 7.08303689956665 149 163 150
-0.3046531081199646 -0.32829946279525757 7.21129035949707 187 177 175
-0.9177469611167908 -0.25927308201789856 8.152586936950684 97 87 95
-0.08546780049800873 1.245035171508789 6.380349159240723 38 43 62
0.5205373764038086 0.03717273846268654 7.222573280334473 123 126 119
-0.6912679672241211 -0.8346101641654968 8.063535690307617 99 86 95
0.029228270053863525 0.28866222500801086 7.125272274017334 125 137 125
0.0012191914720460773 0.3028543293476105 7.130430221557617 96 72 68
0.23963047564029694 0.1398210972547531 7.097842693328857 147 177 188
-0.2361123263835907 1.5115916728973389 6.057275772094727 83 72 115
0.5465282201766968 -0.16854839026927948 7.2406816482543945 139 131 118
-0.5064007043838501 1.642783284187317 6.185703277587891 97 113 146
0.41705355048179626 0.06381766498088837 7.150221824645996 156 177 180
0.22051607072353363 0.3128065764904022 7.170889377593994 123 147 173
-0.13462089002132416 -0.02750374935567379 7.066999435424805 53 58 61
0.17995870113372803 -0.07037770003080368 7.066307544708252 176 190 177
-0.4578949511051178 1.4359683990478516 6.28713846206665 42 40 41
0.13068944215774536 1.3364752531051636 7.047001838684082 130 138 140
-0.1629338413476944 -0.3880279064178467 7.174147129058838 221 218 203
-1.3431764841079712 1.6042455434799194 6.467346668243408 122 164 180
-0.4181954860687256 -0.043303947895765305 7.198458194732666 81 82 87
-1.6330679655075073 1.6649326086044312 6.516507148742676 89 110 127
0.37021827697753906 0.21244758367538452 7.179637432098389 52 63 83
-1.1930629014968872 1.6750422716140747 6.405350208282471 98 90 129
-0.07885468751192093 -0.1549338847398758 7.0684967041015625 184 199 194
-1.7105809450149536 1.499056339263916 6.541121959686279 158 221 255
-0.8019288778305054 0.9214580655097961 7.444667816162109 93 83 73
-0.35009709000587463 -0.22358056902885437 7.175187587738037 193 180 172
0.2636556327342987 -0.41276073455810547 7.196413516998291 131 141 133
-0.15208008885383606 1.4468690156936646 6.347838878631592 61 48 58
0.006672091782093048 -0.07274217903614044 7.055564880371094 51 59 72
-1.1166870594024658 1.2889213562011719 6.718626976013184 49 57 59
-0.7667657732963562 1.5059880018234253 6.229500770568848 69 65 116
0.14406615495681763 0.1132776215672493 7.0671916007995605 161 179 181
-1.527260661125183 1.474265694618225 6.483894348144531 39 50 78
0.5889233946800232 -0.17364168167114258 7.312723159790039 136 120 107
-0.9272516369819641 1.6853834390640259 6.3156585693359375 102 94 135
-0.37429845333099365 -0.14269456267356873 7.174695014953613 175 185 174
-1.1880543231964111 1.2043663263320923 7.088222503662109 137 167 203
-0.39007097482681274 -0.0446765273809433 7.170500755310059 167 169 166
0.24467484652996063 -0.41989201307296753 7.2026448249816895 214 227 210
-0.41922613978385925 -0.17995905876159668 7.216040134429932 144 132 120
-1.3950237035751343 1.439621925354004 6.426210880279541 50 57 111
-0.08600194752216339 1.2455153465270996 6.3834547996521 36 40 52
0.17516237497329712 -0.556999683380127 7.320666790008545 165 177 175
-0.9522977471351624 1.2862528562545776 6.726823806762695 47 51 63
-0.9005246758460999 -0.3479558825492859 8.072877883911133 101 92 97
-0.7855629324913025 1.2576277256011963 6.826807498931885 167 174 158
-0.0200838390737772 1.1690675020217896 6.415953636169434 54 70 95
-0.05241157487034798 0.2884881794452667 7.139753818511963 55 48 64
0.006859715096652508 0.07785559445619583 7.053970813751221 156 175 169
-0.29793739318847656 0.24674361944198608 7.177445888519287 105 114 113
-0.566596508026123 1.0520540475845337 7.2458953857421875 140 125 102
0.3295237123966217 -0.002633499214425683 7.104939937591553 125 135 137
0.17995870113372803 -0.07037770003080368 7.066307544708252 176 190 177
-1.434396505355835 1.4400699138641357 6.441690444946289 41 43 84
0.02561495266854763 0.3060506582260132 7.144041061401367 86 71 66
-0.7635670900344849 1.4305790662765503 6.411221981048584 143 163 172
0.5538884401321411 0.6100117564201355 7.751598834991455 42 43 48
-0.9490122199058533 0.7024115920066833 8.20130729675293 106 87 89
-0.3165081739425659 1.550397276878357 6.106339931488037 39 45 61
-1.580737829208374 1.6067434549331665 6.519590377807617 135 159 161
-0.39682722091674805 0.1738472282886505 7.221865177154541 84 88 89
-0.3088437616825104 -0.12444314360618591 7.135852336883545 177 193 180
0.4576573669910431 -0.5736879706382751 7.663586616516113 71 68 59
-0.20438458025455475 0.17640314996242523 7.122910499572754 140 156 143
0.4571428894996643 -0.03905143216252327 7.169872283935547 117 110 104
-0.13462089002132416 -0.02750374935567379 7.066999435424805 53 58 61
0.053286146372556686 -0.13050289452075958 7.028910160064697 125 108 100
-0.5828254818916321 1.5000239610671997 6.167550086975098 65 58 110
-0.02393682859838009 0.2683120369911194 7.117376327514648 124 136 134
-0.9748944640159607 -0.2616287171840668 8.147313117980957 99 94 101
0.09201861917972565 -0.3013296127319336 7.087979316711426 205 217 207
-0.3413343131542206 -0.17584306001663208 7.162209510803223 176 184 169
-0.6485329866409302 -0.6393594145774841 8.035841941833496 62 63 65
-1.1036297082901 1.2044934034347534 7.054959774017334 156 179 213
-0.2786194086074829 1.6283349990844727 6.115043640136719 99 116 123
0.23905198276042938 -0.2435629665851593 7.0951409339904785 166 189 173
0.6623349785804749 -0.8873412013053894 7.594590187072754 202 203 189
-0.09011445939540863 1.26921546459198 6.39758825302124 165 194 192
0.0638895109295845 0.29101690649986267 7.130861759185791 72 77 83
0.053006913512945175 0.00288398377597332 7.051334381103516 106 126 125
0.1847529113292694 -0.17833572626113892 7.061466217041016 180 197 189
0.210918590426445 0.1763223558664322 7.107468128204346 155 179 181
-1.0651134252548218 1.3868765830993652 6.723273754119873 41 42 37
-0.4137943387031555 -0.1019616648554802 7.194465160369873 170 180 169
-0.2333817183971405 1.064060926437378 6.407467365264893 51 63 105
-0.24685274064540863 0.22176949679851532 7.158167839050293 155 161 157
0.18245196342468262 0.79324871301651 7.6015238761901855 10 19 16
0.29234251379966736 1.3260895013809204 7.184178352355957 169 182 173
-0.014954670332372189 1.2687547206878662 6.410160541534424 179 203 205
0.6220881938934326 -0.75942462682724 7.629096508026123 126 111 114
-0.10546953976154327 0.2751760482788086 7.132278919219971 46 53 59
-0.07667996734380722 0.2919033467769623 7.1428728103637695 70 59 63
-0.19691292941570282 0.4151608645915985 7.251433372497559 104 124 113
0.3555695414543152 0.03992972895503044 7.127987861633301 147 165 165
0.3475794792175293 0.05701243877410889 7.146045207977295 51 56 75
-0.19274689257144928 1.0683960914611816 6.391757011413574 50 63 97
0.26732686161994934 1.393917441368103 6.782097339630127 155 158 165
-0.30246660113334656 -0.43325525522232056 7.302229881286621 124 112 112
0.1765410155057907 1.33480966091156 7.061524868011475 145 155 157
0.484781950712204 -0.1442953497171402 7.199951648712158 69 78 73
-0.3166390061378479 -0.41393426060676575 7.277053356170654 197 180 164
-1.4893510341644287 1.5087131261825562 6.4849853515625 104 134 172
0.15823087096214294 -0.2561161518096924 7.077916145324707 87 93 89
-1.174554467201233 1.3484981060028076 6.606560707092285 193 198 192
-1.1105481386184692 1.0844664573669434 7.368678569793701 162 133 101
-0.9499486088752747 1.3383790254592896 6.713103771209717 20 30 29
0.4590316712856293 -0.2885242998600006 7.2031731605529785 183 195 175
0.49853184819221497 0.19198542833328247 7.2522454261779785 39 56 86
-0.8024307489395142 1.4558451175689697 6.254130840301514 111 95 105
-1.001908302307129 1.3274680376052856 6.709603309631348 21 27 25
-0.9009737372398376 1.2823386192321777 6.728653907775879 144 155 139
-1.1260441541671753 1.2508426904678345 6.741987705230713 169 171 168
0.0543195940554142 1.7449986934661865 5.994685649871826 84 83 115
-1.5716369152069092 1.3656820058822632 6.89336633682251 129 120 151
-0.13232016563415527 -0.15087617933750153 7.085684299468994 169 182 175
-0.20265832543373108 0.4524132013320923 7.298023223876953 40 65 70
-0.33269816637039185 0.014422484673559666 7.148459434509277 52 66 67
0.4020189940929413 0.18220685422420502 7.182108402252197 97 113 126
0.4188334345817566 0.3477559983730316 7.292403221130371 31 52 83
-0.04166124761104584 -0.3642479479312897 7.135366439819336 219 236 228
-0.27703016996383667 0.9771823287010193 7.419759273529053 112 122 114
0.2674385607242584 0.3961423933506012 7.231709003448486 82 102 109
0.10950595140457153 1.4144494533538818 6.598903656005859 163 173 165
0.05563170090317726 0.1976194530725479 7.090583324432373 132 149 143
-0.259194016456604 -0.3969975709915161 7.2272796630859375 197 176 171
-0.09413662552833557 1.2200264930725098 6.381871223449707 166 190 200
-0.024677477777004242 -0.20902253687381744 7.069301605224609 204 210 198
-0.09343384951353073 1.076695442199707 6.416200637817383 66 102 124
-0.9091687798500061 1.4778871536254883 6.2862091064453125 74 63 105
0.44562140107154846 1.0801048278808594 7.795980930328369 82 81 77
-0.20654325187206268 1.4686614274978638 6.254113674163818 132 119 126
-0.7868354916572571 0.9055541753768921 7.454946041107178 83 89 79
-0.7315856218338013 1.5808576345443726 6.2404608726501465 102 127 131
0.3542943298816681 0.3410349488258362 7.242126941680908 48 65 75
0.26240575313568115 -0.3462314009666443 7.164316654205322 190 206 179
-0.26006972789764404 0.05228499323129654 7.1108222007751465 108 128 126
-0.2612791061401367 -0.15670648217201233 7.1277546882629395 149 140 131
0.24024632573127747 0.3637930750846863 7.211031436920166 41 54 71
-0.06029511243104935 0.2321646511554718 7.105116844177246 141 161 162
-0.11540387570858002 1.1077489852905273 6.383722305297852 112 136 170
-0.039073847234249115 -0.12784801423549652 7.055456161499023 165 167 153
-0.14737552404403687 -0.1860203742980957 7.078726291656494 188 189 173
-1.1777461767196655 1.3827435970306396 6.586357116699219 46 49 54
0.4822651445865631 0.057618383318185806 7.202637672424316 46 54 77
0.19902759790420532 -0.09816354513168335 7.066563606262207 167 179 179
0.16941210627555847 0.1483893245458603 7.084476947784424 132 154 165
-0.7099411487579346 1.4417033195495605 6.4105143547058105 150 169 184
0.3544618785381317 1.4376609325408936 6.7516632080078125 36 42 58
-0.29710689187049866 -0.04330667853355408 7.127320766448975 165 175 176
0.49587130546569824 -0.3191583752632141 7.3034820556640625 183 185 171
0.17022359371185303 -0.453078031539917 7.200362682342529 230 247 231
0.6049833297729492 -0.1606193333864212 7.329733848571777 58 63 66
-0.9265221953392029 0.9350277185440063 7.412347793579102 151 132 100
-0.44694784283638 -0.28057360649108887 7.282642841339111 89 82 90
-0.14968553185462952 1.0681554079055786 6.401228904724121 27 45 91
-0.26346540451049805 -0.10790283232927322 7.126768112182617 166 176 175
-0.1474628746509552 1.3639154434204102 6.323756217956543 17 28 46
0.062030129134655 -0.5125047564506531 7.246374607086182 226 243 235
-0.5827562808990479 1.6127493381500244 6.1992878913879395 86 104 126
-0.045275554060935974 1.0124289989471436 7.669586658477783 45 56 48
-0.7499161958694458 0.5804080963134766 8.140849113464355 105 88 98
0.12567663192749023 0.3043380677700043 7.136638641357422 130 153 167
-0.7734555006027222 1.4634172916412354 6.2592644691467285 119 98 103
-0.9495244026184082 0.9316391944885254 7.411689281463623 153 131 94
0.23684240877628326 0.0065191444009542465 7.080671787261963 157 182 176
-0.031033119186758995 1.4219696521759033 6.434272766113281 8 7 12
0.149149551987648 0.16224251687526703 7.091362476348877 129 147 151
-0.9505802989006042 -0.3413494825363159 8.147884368896484 67 65 70
-0.20359788835048676 1.1519261598587036 6.344144821166992 55 79 123
0.5091556310653687 1.2605247497558594 7.75142240524292 166 162 135
0.46963217854499817 0.3109649419784546 7.318019390106201 38 47 76
-0.19693242013454437 -0.3876630365848541 7.186643600463867 208 201 191
9.06495624803938e-05 0.19540145993232727 7.077958583831787 108 126 110
-0.010889535769820213 -0.2260168343782425 7.074897289276123 67 75 77
-0.25989648699760437 -0.018881553784012794 7.1119184494018555 143 156 147
0.6099202036857605 -0.7767251133918762 7.645310401916504 81 71 79
-1.6449921131134033 1.6511917114257812 6.531155109405518 148 158 150
-0.3911164402961731 -0.21922940015792847 7.215986251831055 173 151 137
-1.0365909337997437 1.4047520160675049 6.469991683959961 67 65 89
-0.4557205140590668 1.7117758989334106 6.148642063140869 86 78 101
0.4992118775844574 -0.08494262397289276 7.193592071533203 72 86 87
-0.3413343131542206 -0.17584306001663208 7.162209510803223 176 184 169
0.04153720661997795 -0.5259925127029419 7.276489734649658 224 235 227
-0.9952459931373596 1.3995428085327148 6.461555004119873 151 163 175
-0.11896146088838577 1.5074015855789185 6.017329692840576 163 151 165
-0.28400009870529175 1.4578946828842163 6.324165344238281 87 85 98
-0.10208027809858322 -0.4638902246952057 7.227028846740723 110 105 111
-0.19015096127986908 0.47550711035728455 7.313685894012451 98 110 98
-0.4746643602848053 0.21643000841140747 7.310985088348389 91 106 113
-0.915578305721283 1.2865022420883179 6.7214484214782715 182 183 175
-1.4771678447723389 1.4219805002212524 6.4278388023376465 95 102 121
0.49788835644721985 -0.15761984884738922 7.195312023162842 171 177 167
-0.4382951855659485 -0.12515029311180115 7.2184224128723145 177 189 185
-1.1166870594024658 1.2889213562011719 6.718626976013184 49 57 59
-0.8708953857421875 1.257976770401001 6.768722057342529 177 182 159
-0.28086012601852417 1.4245954751968384 6.34712028503418 13 19 33
-0.4012903571128845 0.21522024273872375 7.236239910125732 149 164 159
-0.2920381724834442 1.4835008382797241 6.088518142700195 102 87 110
-0.0037674554623663425 -0.05118364468216896 7.0741376876831055 62 76 76
-1.2015780210494995 1.4907556772232056 6.380362033843994 63 75 99
-0.02353035844862461 -0.45866385102272034 7.196144104003906 225 242 234
-1.6590710878372192 1.6155292987823486 6.563812255859375 118 146 170
-0.9354543089866638 1.4505451917648315 6.300424575805664 119 105 128
-1.2187840938568115 1.3910866975784302 6.602503299713135 61 58 79
0.15119868516921997 -0.5454690456390381 7.308995246887207 223 240 224
-0.9018318057060242 -0.720482587814331 8.112346649169922 107 97 105
0.23089264333248138 1.3882888555526733 6.705029010772705 197 213 210
-0.031024198979139328 1.4221534729003906 6.434248924255371 8 7 12
-1.2587645053863525 1.4563473463058472 6.383250713348389 46 48 99
-0.11787519603967667 1.5160952806472778 6.002932548522949 87 69 121
-0.7207655310630798 1.3024985790252686 6.854863166809082 16 21 25
-0.9762407541275024 1.2036184072494507 7.108401775360107 227 240 231
-0.783845067024231 0.5732787847518921 8.142014503479004 70 59 73
-1.1255141496658325 1.4397398233413696 6.35595703125 122 108 131
0.2730272710323334 -0.26360854506492615 7.111747741699219 205 217 193
0.4207135736942291 0.016946127638220787 7.146681785583496 81 95 108
-0.595042884349823 1.4630320072174072 6.216482162475586 156 163 171
0.1936577707529068 0.38524383306503296 7.206721782684326 88 89 83
0.258272647857666 0.7636993527412415 7.564835548400879 78 88 89
-0.0042852065525949 -0.16078266501426697 7.061369895935059 62 62 52
-0.11485177278518677 0.3165043592453003 7.158996105194092 113 113 103
0.21578575670719147 0.4941805899143219 7.328448295593262 62 59 78
-0.3293799161911011 0.35827523469924927 7.268635272979736 125 136 119
-1.7142435312271118 1.6398557424545288 6.586719989776611 150 160 170
-0.8390316367149353 1.2549138069152832 6.7817158699035645 174 178 155
0.288108229637146 0.02824944630265236 7.081814765930176 127 145 149
-1.6110475063323975 1.6784884929656982 6.511086940765381 77 112 140
-0.022568609565496445 1.6516096591949463 6.040066242218018 110 144 172
-0.8043339848518372 1.329448938369751 6.762441158294678 29 31 28
-1.6030850410461426 1.4957537651062012 6.531774520874023 55 58 93
-0.20910777151584625 -0.23760610818862915 7.122853755950928 152 132 131
0.27712365984916687 -0.07201093435287476 7.094568729400635 152 165 155
0.41610339283943176 0.3078145384788513 7.2674102783203125 94 115 146
-0.8940894603729248 1.4949960708618164 6.267313003540039 82 77 135
-0.22422899305820465 0.14735999703407288 7.131887435913086 103 120 112
0.6736332178115845 0.75977623462677 7.725934982299805 88 68 79
-0.08933408558368683 1.3746212720870972 6.421774387359619 16 21 40
-0.8942791223526001 1.2757512331008911 6.745859146118164 41 49 52
-0.11967457830905914 0.7544736862182617 7.690379619598389 74 76 71
0.4163166582584381 0.33428719639778137 7.2874755859375 43 57 83
0.28065529465675354 -0.40289852023124695 7.192328929901123 236 244 233
-0.5514733195304871 1.711443305015564 6.173657417297363 70 64 112
-0.7426687479019165 1.2577998638153076 6.861459732055664 167 171 156
-0.778896152973175 1.2459219694137573 6.833896160125732 120 123 114
0.5034667253494263 0.3216073513031006 7.33983850479126 43 44 74
0.4925665557384491 -0.747535228729248 7.686641693115234 125 111 110
-1.130049467086792 1.2582215070724487 6.717143535614014 173 186 177
-0.0677654892206192 1.2676175832748413 6.3858819007873535 164 191 198
0.5489285588264465 -0.14020486176013947 7.220372200012207 148 142 118
-0.7974536418914795 0.8759915828704834 7.421715259552002 63 70 62
-0.27851179242134094 -0.18371088802814484 7.120920658111572 165 154 148
-0.27292346954345703 0.4508860409259796 7.320019245147705 112 122 111
-0.12325849384069443 -0.525501012802124 7.29287052154541 138 149 135
-1.1736483573913574 1.3598271608352661 6.6015706062316895 72 76 77
-1.0843042135238647 0.8815163969993591 7.480862140655518 206 187 154
0.05540410429239273 1.441833257675171 6.506019592285156 34 34 42
-0.3981650173664093 0.015347791835665703 7.185105800628662 130 128 116
0.59822016954422 -0.0032325044739991426 7.297476291656494 134 149 152
-0.753222644329071 1.266595482826233 6.8408203125 175 186 172
0.007021666504442692 -0.19574007391929626 7.0626726150512695 188 191 184
0.38864660263061523 0.3560526371002197 7.2820725440979 85 115 141
0.5033462643623352 -0.7196593880653381 7.677328109741211 113 87 86
-0.2791805863380432 0.3305588364601135 7.239037990570068 74 89 82
0.7375888228416443 -0.2639770805835724 7.622766971588135 84 74 73
-0.6149996519088745 1.4765912294387817 6.175623416900635 141 140 180
0.045982301235198975 0.27527716755867004 7.126009941101074 55 75 74
0.3193443715572357 -0.3523315191268921 7.1790547370910645 184 205 198
-0.1414332538843155 -0.5412155389785767 7.3241987228393555 218 235 225
-0.5953264236450195 1.5109953880310059 6.162525177001953 71 69 108
0.24846988916397095 1.013758659362793 7.861907482147217 73 68 74
0.5333869457244873 -0.10916516929864883 7.227101802825928 129 137 124
0.5157566070556641 0.1744651049375534 7.239473819732666 124 144 171
-0.8095644116401672 1.7127201557159424 6.270843982696533 56 50 110
0.44423428177833557 0.053292036056518555 7.174470901489258 153 172 168
-0.1242661401629448 1.0678139925003052 6.405886173248291 36 44 65
0.19106100499629974 0.3671410083770752 7.18842887878418 39 55 71
-0.44909536838531494 1.4649196863174438 6.226436614990234 127 123 146
-1.001908302307129 1.3274680376052856 6.709603309631348 21 27 25
0.24254684150218964 -0.39719250798225403 7.175169944763184 221 225 210
-0.7437782287597656 0.5480270981788635 8.123002052307129 71 66 88
0.15513455867767334 -0.46359381079673767 7.205427169799805 193 216 210
0.7394740581512451 -0.8716565370559692 7.533907413482666 118 123 119
0.6049833297729492 -0.1606193333864212 7.329733848571777 58 63 66
0.25449085235595703 0.156289741396904 7.105376720428467 116 147 152
-0.06286736577749252 -0.3800778388977051 7.14330530166626 194 213 207
0.017598940059542656 1.4486171007156372 6.4301533699035645 106 110 119
0.03602585941553116 -0.1265496462583542 7.061390399932861 122 108 95
0.15724064409732819 0.693760335445404 7.543424606323242 47 51 62
-0.04765491187572479 1.2036906480789185 6.4048027992248535 37 43 65
-0.5561137795448303 -0.12005285173654556 7.343186855316162 83 81 95
-1.6484383344650269 1.507129192352295 6.5366129875183105 106 131 161
-0.4099370837211609 -0.12569405138492584 7.184425354003906 163 177 162
-1.6393429040908813 1.593042016029358 6.538215637207031 70 96 121
-0.7294702529907227 -0.5428538918495178 8.077141761779785 77 72 78
0.23650436103343964 0.42859959602355957 7.272552967071533 43 57 70
-0.35830575227737427 0.07518109679222107 7.181838035583496 109 97 83
-0.35429930686950684 0.19281598925590515 7.209537982940674 55 64 73
0.04258136823773384 -0.2888577878475189 7.105147361755371 176 193 175
-0.07325120270252228 1.165647268295288 6.3945488929748535 157 182 187
-1.1025395393371582 1.4207634925842285 6.4677205085754395 166 166 176
-0.6279763579368591 1.4212590456008911 6.3863325119018555 123 143 144
0.18244682252407074 1.4299521446228027 6.646960258483887 73 74 78
-0.3063364028930664 1.5619349479675293 6.094346046447754 101 125 161
0.6699877977371216 -0.5803950428962708 7.645438194274902 119 107 111
-1.870461344718933 1.8069769144058228 5.610647201538086 195 226 254
-0.11124955117702484 1.6419801712036133 6.059591770172119 113 148 178
-0.23435932397842407 1.4683350324630737 6.251798629760742 139 121 133
-0.32719895243644714 0.9612513184547424 7.453063011169434 153 164 160
-0.8907850980758667 1.3321282863616943 6.724388599395752 23 23 21
-1.0478764772415161 1.4199100732803345 6.462454319000244 167 164 183
-0.7220278978347778 1.2333873510360718 6.93550968170166 160 166 154
0.10114283114671707 0.2783994674682617 7.1141839027404785 127 149 147
-0.6070997714996338 1.4915157556533813 6.162520885467529 53 51 91
0.4786302149295807 0.033672381192445755 7.2056193351745605 55 69 70
0.38594576716423035 0.06933033466339111 7.127285480499268 151 171 172
0.2664923071861267 -0.17576248943805695 7.0854692459106445 168 180 156
-0.005749836098402739 0.4326220750808716 7.213384628295898 51 42 45
-0.8332501649856567 1.2628910541534424 6.770864486694336 88 95 103
-1.0550460815429688 1.2171441316604614 7.029182434082031 233 245 243
0.00742568401619792 0.09924736618995667 7.066422462463379 124 144 135
0.6677702069282532 -0.7802796363830566 7.608001708984375 112 91 86
-0.439952552318573 0.14316533505916595 7.244687557220459 78 84 80
-0.8877803087234497 0.2658073604106903 8.161194801330566 80 78 83
-0.17037653923034668 -0.32746776938438416 7.139113426208496 86 97 99
-0.05766672641038895 -0.11150802671909332 7.053351402282715 90 91 83
-0.14005543291568756 -0.1205330640077591 7.07017183303833 161 174 167
0.18616783618927002 1.450624704360962 6.524835586547852 153 127 140
-0.16055521368980408 0.4562693238258362 7.272904872894287 97 103 91
-0.013132338412106037 1.633099913597107 5.991176128387451 115 135 159
0.041713085025548935 -0.1668042093515396 7.050712585449219 143 120 106
0.4465640187263489 -0.20815056562423706 7.18827486038208 154 170 157
-0.17882774770259857 -0.2032560557126999 7.107743740081787 174 164 165
-0.15149883925914764 -0.20975203812122345 7.090507984161377 191 191 181
-1.4771678447723389 1.4219805002212524 6.4278388023376465 95 102 121
-0.22422899305820465 0.14735999703407288 7.131887435913086 103 120 112
0.219398632645607 -0.4947243928909302 7.261203765869141 153 172 170
0.22751466929912567 0.34513425827026367 7.193541526794434 114 141 150
-0.19381432235240936 -0.42608094215393066 7.215847969055176 211 185 170
-0.591188907623291 1.484791874885559 6.161996841430664 133 128 168
-0.15926885604858398 0.21488253772258759 7.125326156616211 118 128 130
0.17516237497329712 -0.556999683380127 7.320666790008545 165 177 175
-0.4160468280315399 0.14730043709278107 7.221989631652832 74 77 66
-0.10078486800193787 -0.5194926857948303 7.273582458496094 230 247 237
0.76736980676651 -0.01016712561249733 7.630918502807617 93 80 87
-0.16755980253219604 -0.5393985509872437 7.33615779876709 223 235 221
-1.0756276845932007 1.4061369895935059 6.4930596351623535 65 54 62
0.3877336084842682 1.1682848930358887 7.818917751312256 73 60 69
-0.5452887415885925 -0.13587038218975067 7.319773197174072 169 151 149
-0.2714552879333496 1.3754018545150757 6.2972588539123535 22 27 56
-0.4926825165748596 1.426409125328064 6.479211330413818 102 96 122
-0.32110193371772766 -0.8153281211853027 7.917453765869141 128 115 122
0.08461508899927139 -0.184246227145195 7.054599761962891 171 179 166
-0.22267884016036987 0.18535761535167694 7.132050037384033 145 168 162
-0.01816011779010296 0.055052902549505234 7.064819812774658 132 149 133
-0.31622764468193054 -0.7966129779815674 7.932043552398682 104 98 100
-0.7545106410980225 1.6094849109649658 6.26127815246582 117 124 153
-0.6382627487182617 -0.6105083227157593 8.025781631469727 121 110 116
-0.08253619819879532 0.03159671276807785 7.054669380187988 125 142 134
-0.7878603935241699 0.9365077018737793 7.448905944824219 76 78 73
-0.7040275931358337 0.8894016146659851 7.38637638092041 129 140 124
0.6055693030357361 -0.6051953434944153 7.659520626068115 121 105 105
0.6085306406021118 -0.5846571922302246 7.646556377410889 86 76 77
-1.1880543231964111 1.2043663263320923 7.088222503662109 137 167 203
-0.27326464653015137 1.2113150358200073 6.329975128173828 107 137 187
0.16814151406288147 1.4369359016418457 6.615179061889648 142 156 159
-0.3092310428619385 -0.22498144209384918 7.1556854248046875 180 168 156
-0.5561137795448303 -0.12005285173654556 7.343186855316162 83 81 95
-0.022724663838744164 0.08733176440000534 7.058530807495117 137 155 133
-0.16432742774486542 -0.10263153165578842 7.091120719909668 174 180 176
0.6547797918319702 -0.7201143503189087 7.631225109100342 114 109 113
0.3371073305606842 1.478732705116272 6.598956108093262 63 66 75
-0.8685469627380371 -0.7458283305168152 8.109198570251465 63 60 67
-0.013273613527417183 0.4110485017299652 7.191936492919922 48 48 38
0.0311635322868824 1.3161050081253052 6.385958194732666 54 83 127
-0.8986645936965942 1.3024582862854004 6.727832794189453 93 98 94
-0.5661541223526001 1.4710396528244019 6.183505535125732 132 122 156
-0.16338910162448883 -0.523664116859436 7.298509120941162 126 146 145
-0.7685602903366089 0.5270591378211975 8.162885665893555 99 88 102
0.1935906559228897 -0.8057805895805359 7.7592363357543945 125 106 108
-0.038839612156152725 1.6251167058944702 6.044243335723877 93 108 131
0.4288898706436157 -0.4016760289669037 7.272092819213867 192 208 198
-0.40335461497306824 -0.1771559864282608 7.198915004730225 173 166 158
0.15116357803344727 1.4340287446975708 6.600440502166748 152 171 178
-0.03438882902264595 0.42843732237815857 7.192480087280273 92 76 76
-0.5827562808990479 1.6127493381500244 6.1992878913879395 86 104 126
-0.1275876760482788 0.7318292856216431 7.737298011779785 58 66 68
-1.6567647457122803 1.5814834833145142 6.5449442863464355 131 162 182
0.01884477399289608 -0.09707865118980408 7.043697357177734 144 137 118
-1.198434591293335 1.4022514820098877 6.573187828063965 161 178 188
0.057933881878852844 0.5825304388999939 7.366473197937012 35 35 37
0.5050626397132874 -0.09820643812417984 7.195487976074219 141 155 140
0.08444558084011078 0.06817629933357239 7.059666633605957 107 128 113
0.25625842809677124 -0.013729595579206944 7.065093040466309 179 197 185
-1.082810878753662 1.275091528892517 6.716350078582764 95 97 92
-1.6612582206726074 1.3902679681777954 6.511893272399902 141 150 147
-1.0332207679748535 1.6766397953033447 6.337766647338867 91 86 108
-0.2750105559825897 -0.5044085383415222 7.352102756500244 129 129 127
-0.8380047678947449 -0.7256174087524414 8.084819793701172 108 102 102
-0.5876485109329224 1.4457905292510986 6.22274112701416 45 38 45
0.13297294080257416 0.014303034171462059 7.049056529998779 127 140 131
0.26919060945510864 1.4660933017730713 6.550438404083252 45 37 58
-0.5004652738571167 0.22249583899974823 7.337390422821045 93 106 112
-0.875916063785553 0.3337976634502411 8.157029151916504 114 97 113
0.2978319227695465 0.145389586687088 7.1253814697265625 149 178 192
-0.8043339848518372 1.329448938369751 6.762441158294678 29 31 28
0.06073760613799095 1.4573622941970825 6.440713882446289 91 78 95
-0.8315615057945251 1.4174294471740723 6.427280902862549 65 64 72
-0.6863828301429749 -0.674044132232666 8.026590347290039 87 77 78
0.5012867450714111 -0.13156120479106903 7.192903518676758 165 177 153
-1.047498106956482 1.2745304107666016 6.722078800201416 182 189 182
-0.23641973733901978 1.4597738981246948 6.293910503387451 79 71 86
-0.20624282956123352 1.4936559200286865 6.063287734985352 109 102 118
0.4288898706436157 -0.4016760289669037 7.272092819213867 192 208 198
0.00631945813074708 1.3880150318145752 6.480135917663574 29 39 66
-0.03696942329406738 0.2619226574897766 7.114694595336914 68 92 94
-0.7109907865524292 1.5592074394226074 6.243465900421143 74 86 86
0.45381224155426025 -0.37873438000679016 7.290892601013184 211 219 206
-0.2560082972049713 1.4426122903823853 6.310501575469971 36 36 34
0.16092418134212494 -0.3573618233203888 7.116451263427734 211 231 220
0.10025925189256668 -0.49101218581199646 7.218198776245117 226 239 229
-0.7727206945419312 -0.5181803107261658 8.069129943847656 118 106 118
0.2176169902086258 1.4357562065124512 6.645657539367676 146 152 166
-0.6773940920829773 1.486951470375061 6.194377899169922 40 53 97
-0.026842867955565453 0.21104983985424042 7.082961559295654 115 135 134
-0.5532737374305725 -0.7389879822731018 7.98286771774292 119 104 107
-0.1355275958776474 0.2544625401496887 7.140232563018799 121 141 140
-0.41949227452278137 -0.25476861000061035 7.249237060546875 194 181 165
-0.7426687479019165 1.2577998638153076 6.861459732055664 167 171 156
0.1147581934928894 0.033377062529325485 7.045425891876221 128 149 144
0.09452682733535767 0.17468956112861633 7.086802005767822 111 137 134
-0.21315206587314606 1.025158166885376 7.363639831542969 84 99 96
-0.6931961178779602 1.4769814014434814 6.213362216949463 189 182 189
-0.7641241550445557 -0.4187229871749878 8.072279930114746 80 69 83
0.4387754499912262 1.3276007175445557 7.812819004058838 60 56 73
-0.10161293298006058 -0.20711825788021088 7.080049991607666 112 117 97
0.219398632645607 -0.4947243928909302 7.261203765869141 153 172 170
0.03889508172869682 -0.30295032262802124 7.091664791107178 207 218 210
-0.4154677987098694 0.3542795181274414 7.366402626037598 118 139 140
-0.3843066096305847 -0.23725107312202454 7.205465793609619 177 147 139
-0.17378269135951996 0.44942834973335266 7.2908172607421875 66 83 77
-0.12762655317783356 0.8871059417724609 7.77558708190918 24 35 29
-0.05778798088431358 1.6494815349578857 6.049966812133789 118 151 186
-0.5227832794189453 0.049307454377412796 7.294609546661377 63 55 78
0.24157965183258057 -0.3731807768344879 7.160240173339844 212 230 218
0.5999309420585632 0.08871009200811386 7.323392391204834 122 132 144
0.39076370000839233 -0.4457494914531708 7.285902500152588 218 235 219
-0.23213785886764526 1.0411139726638794 6.399928092956543 46 49 90
-0.1715470552444458 1.4947670698165894 6.096469879150391 123 124 142
-0.1749836504459381 0.7457887530326843 7.748175621032715 60 62 59
0.583511471748352 1.066019058227539 7.7515740394592285 89 78 86
-0.8243048191070557 0.8587549328804016 7.434405326843262 82 87 80
0.07230804115533829 -0.5548503994941711 7.290122032165527 231 245 228
-0.8822610974311829 -0.14285120368003845 8.137934684753418 112 108 109
-1.5074539184570312 1.654154896736145 6.493905067443848 67 77 69
-1.4494045972824097 1.4536147117614746 6.44067907333374 19 34 73
-0.5674789547920227 1.6390326023101807 6.173039436340332 42 63 90
-1.246486783027649 1.3709570169448853 6.641461372375488 150 156 156
-0.03696942329406738 0.2619226574897766 7.114694595336914 68 92 94
0.18133407831192017 0.18349164724349976 7.09798002243042 117 145 149
-0.717519223690033 1.458836555480957 6.262214660644531 143 136 154
-1.6173006296157837 1.4272550344467163 6.479612827301025 80 105 127
-0.28915828466415405 1.3777283430099487 6.319018840789795 24 28 55
-0.7798824310302734 0.8535997867584229 7.416518688201904 153 152 132
-0.655687689781189 1.7222145795822144 6.241438388824463 91 86 116
0.38776272535324097 -0.6589934229850769 7.72050666809082 88 78 89
-0.024537842720746994 -0.5159968733787537 7.253032684326172 227 243 233
-0.15173019468784332 0.46304458379745483 7.276088714599609 50 61 55
-0.15149883925914764 -0.20975203812122345 7.090507984161377 191 191 181
-0.17732946574687958 0.11875000596046448 7.097736835479736 153 171 171
0.16058526933193207 -0.577866792678833 7.339349269866943 154 165 151
0.5079187750816345 0.21065255999565125 7.255105495452881 121 153 176
-0.3667052686214447 -0.3698612451553345 7.27912712097168 210 200 190
0.30763235688209534 -0.49694639444351196 7.29905891418457 203 220 202
-0.2610507607460022 1.7305268049240112 6.093413829803467 78 81 116
-0.6395343542098999 1.4392567873001099 6.376203536987305 152 167 188
-1.6567647457122803 1.5814834833145142 6.5449442863464355 131 162 182
-0.4252263307571411 0.021200917661190033 7.200482368469238 117 113 110
0.08351404964923859 1.4170575141906738 6.565157890319824 148 155 148
-0.4019567668437958 -0.7246083617210388 7.965769290924072 81 82 87
0.6499026417732239 1.3364158868789673 7.737977981567383 168 159 130
-0.6708608269691467 1.4121344089508057 6.40730619430542 51 52 56
0.5033462643623352 -0.7196593880653381 7.677328109741211 113 87 86
-1.0032154321670532 1.2141380310058594 7.025958061218262 230 242 238
0.01502805296331644 -0.43981045484542847 7.161991119384766 202 213 205
-1.5815922021865845 1.4074536561965942 6.565654754638672 129 140 132
0.29572558403015137 1.3062224388122559 7.21424674987793 187 204 194
-0.6708608269691467 1.4121344089508057 6.40730619430542 51 52 56
0.16457708179950714 -0.8254685401916504 7.781181812286377 120 104 107
0.2443017065525055 1.6340121030807495 6.271859645843506 191 195 204
-0.26058924198150635 1.3493863344192505 6.292374610900879 25 28 47
-0.4332082271575928 0.7562457323074341 8.000571250915527 93 74 80
0.09956157952547073 -0.6008546948432922 7.385544776916504 176 176 168
-0.4242485463619232 0.16823889315128326 7.23318338394165 135 150 155
-1.1369422674179077 1.67940092086792 6.4000563621521 98 94 111
0.4187088906764984 -0.6748890280723572 7.705721855163574 118 112 114
-0.8431389331817627 1.279252052307129 6.766341686248779 37 38 59
-0.8085816502571106 -0.7090046405792236 8.097738265991211 75 70 74
-0.6993978023529053 1.23891282081604 6.971181869506836 72 90 102
-0.15627655386924744 -0.11587271094322205 7.081947326660156 87 88 90
0.037599530071020126 1.3693556785583496 6.455142974853516 58 63 92
0.2412727177143097 0.45039236545562744 7.280077934265137 31 37 49
-0.361240416765213 0.35346606373786926 7.318607330322266 82 100 104
-1.0727779865264893 1.4153592586517334 6.4576263427734375 159 171 185
0.2807694971561432 1.106382966041565 7.8121232986450195 65 64 69
0.8067000508308411 -0.7614676356315613 7.585488319396973 135 138 117
0.3937968611717224 1.1862555742263794 7.801891326904297 63 45 45
-0.21308095753192902 1.1669350862503052 6.333418369293213 60 96 132
-0.1770222783088684 1.0385345220565796 6.384817600250244 110 148 195
-1.048953890800476 1.3242391347885132 6.703391075134277 22 23 25
0.18752984702587128 -0.7853779196739197 7.74041748046875 91 82 77
-0.8066354990005493 1.402631163597107 6.643040180206299 141 128 146
-0.7685602903366089 0.5270591378211975 8.162885665893555 99 88 102
0.30603861808776855 -0.5205459594726562 7.335535049438477 216 227 210
0.7621337175369263 -0.4703827500343323 7.601905822753906 103 94 97
0.6617438197135925 -0.4573425352573395 7.6443190574646 111 94 102
-0.013273613527417183 0.4110485017299652 7.191936492919922 48 48 38
0.39640071988105774 -0.174981489777565 7.152152061462402 183 199 186
-0.51826012134552 0.21288679540157318 7.347503662109375 147 165 177
0.2451711893081665 -0.025224296376109123 7.0549092292785645 135 156 147
0.33119717240333557 -0.7624657154083252 7.746801853179932 97 81 81
-0.3393819332122803 1.439512014389038 6.314760684967041 47 46 42
-0.1233467236161232 1.0487992763519287 6.413264751434326 22 43 90
-0.7548391222953796 1.5998562574386597 6.268000602722168 136 170 197
-1.7385107278823853 1.6666531562805176 6.565213680267334 132 205 255
0.41510680317878723 -0.2482311725616455 7.181502342224121 173 189 178
0.6049833297729492 -0.1606193333864212 7.329733848571777 58 63 66
-0.11926433444023132 1.3124467134475708 6.352566242218018 62 87 127
-0.8255577683448792 -0.6861696839332581 8.085646629333496 96 95 91
-0.3667052686214447 -0.3698612451553345 7.27912712097168 210 200 190
-0.8530135750770569 0.8742927312850952 7.461972713470459 154 151 136
-0.28282657265663147 1.568522572517395 6.103716850280762 103 129 144
-1.15377676486969 1.3820618391036987 6.584803581237793 110 120 132
0.5779709219932556 0.03315553814172745 7.295650005340576 150 167 161
0.22477994859218597 0.38254374265670776 7.216899871826172 106 120 120
-0.7789809107780457 1.6948485374450684 6.269847393035889 84 85 116
0.5305080413818359 0.4671016037464142 7.622993469238281 21 27 43
0.2678722143173218 -0.001363164745271206 7.08598518371582 146 162 161
0.18808332085609436 -0.08850520104169846 7.066558837890625 71 82 86
