ply
format ascii 1.0
element vertex 695
property float x
property float y
property float z
property uchar red
property uchar green
property uchar blue
end_header
0.2332991063594818 -0.28142663836479187 7.031889915466309 197 216 210
-0.9378567934036255 1.5211483240127563 6.245977401733398 75 85 77
-0.1485898345708847 1.2513049840927124 6.279839038848877 172 191 195
-0.19455517828464508 1.3104106187820435 6.2439961433410645 75 109 155
-0.0347696915268898 -0.16491295397281647 6.985774517059326 69 75 65
-0.8602766990661621 1.4935152530670166 6.216125965118408 48 49 106
-1.0321236848831177 1.1033663749694824 7.321018695831299 61 61 63
-0.7622034549713135 1.5545945167541504 6.193515777587891 137 164 175
-0.3171670138835907 -0.8048266172409058 7.819812774658203 128 115 122
-0.9322966933250427 1.2379231452941895 6.67647647857666 127 126 108
-0.44106054306030273 1.627344012260437 6.133952617645264 94 110 144
-0.07605887949466705 0.14148320257663727 6.99882698059082 98 117 124
0.46079301834106445 -0.1529720276594162 7.111435413360596 167 186 182
0.5605560541152954 -0.8459525108337402 7.545457363128662 83 74 75
0.3753357231616974 -0.7798839211463928 7.620593547821045 119 110 113
0.07180429250001907 -0.28986385464668274 7.007928848266602 210 225 222
-1.5912431478500366 1.5499930381774902 6.457370281219482 74 64 88
-0.4323006272315979 1.6545552015304565 6.106733322143555 103 110 129
0.12670564651489258 0.26901042461395264 7.043667316436768 152 169 159
0.6254348754882812 1.1605947017669678 7.620181083679199 129 130 116
-0.9510737657546997 1.6151798963546753 6.261233806610107 102 113 143
-0.23937547206878662 0.10433273017406464 7.034955024719238 109 130 123
0.5605560541152954 -0.8459525108337402 7.545457363128662 83 74 75
-0.11400415748357773 1.1346122026443481 6.321664810180664 48 74 123
-0.09205840528011322 -0.1510177105665207 6.983393669128418 181 188 181
-0.027130793780088425 -0.08491287380456924 6.981562614440918 136 127 120
-0.040768228471279144 1.1560678482055664 6.343268394470215 162 184 195
-0.18428778648376465 -0.2798004448413849 7.048293590545654 197 186 166
-0.40399593114852905 -0.15946482121944427 7.117445945739746 172 153 147
-0.0835438147187233 -0.1371113508939743 6.983994960784912 84 88 89
-0.07605887949466705 0.14148320257663727 6.99882698059082 98 117 124
-1.4347425699234009 1.4950337409973145 6.399961471557617 105 136 156
-1.0935996770858765 1.2370325326919556 6.668586730957031 69 82 75
0.363351434469223 0.054610833525657654 7.0490570068359375 65 75 76
-0.25752124190330505 -0.1836414337158203 7.035647392272949 172 165 155
-0.2474079430103302 0.009029809385538101 7.030453205108643 151 159 148
0.09509500861167908 -0.1250365823507309 6.972079753875732 184 200 190
-0.028164111077785492 -0.2733156085014343 7.0148749351501465 195 206 190
-0.0153658427298069 -0.11034640669822693 6.970461368560791 148 134 121
-0.0021151313558220863 1.3307750225067139 6.326844692230225 66 99 108
-0.222100630402565 -0.27936187386512756 7.062768459320068 195 176 159
-0.024419043213129044 -0.12629278004169464 6.9757080078125 156 149 131
-0.9510737657546997 1.6151798963546753 6.261233806610107 102 113 143
-0.3423232138156891 1.5560318231582642 6.067968368530273 108 126 148
-0.15400336682796478 -0.11338212341070175 6.999898910522461 75 79 80
-0.030064793303608894 0.29664143919944763 7.057432174682617 117 106 100
0.16412004828453064 -0.10399086028337479 6.983860492706299 181 201 192
0.31898918747901917 -0.2948295474052429 7.061306476593018 203 220 212
-0.15377740561962128 1.531784176826477 5.981627464294434 41 52 97
0.0042125629261136055 1.676783561706543 5.966981410980225 73 87 114
0.012172321788966656 -0.05240261182188988 6.966075420379639 47 67 66
0.363351434469223 0.054610833525657654 7.0490570068359375 65 75 76
-0.05978664383292198 0.12642306089401245 6.987597465515137 145 167 165
-0.9044339060783386 1.694029450416565 6.239561080932617 86 88 126
-0.2069360762834549 0.06509946286678314 7.012945652008057 156 168 166
-0.12465675920248032 -0.04204411432147026 6.986884593963623 144 160 159
0.052226223051548004 1.7094885110855103 5.957672119140625 49 53 62
0.3351413607597351 0.15109491348266602 7.067694187164307 115 145 156
-1.0226521492004395 1.2774271965026855 6.6388163566589355 127 135 122
-0.0030281764920800924 -0.08126655220985413 6.9806365966796875 141 139 118
-0.11182136088609695 -0.030668102204799652 6.988951683044434 46 53 63
-0.03504533693194389 0.09769681096076965 6.9846510887146 157 172 169
-0.08170188218355179 0.19928734004497528 7.0228705406188965 62 78 78
-1.4807337522506714 1.5692925453186035 6.439949989318848 124 130 152
0.18412338197231293 0.0019097645999863744 6.990486145019531 160 178 166
0.01704537868499756 1.3192782402038574 6.341251373291016 18 34 68
-0.10590669512748718 1.2442840337753296 6.301549911499023 167 193 194
-1.006742238998413 1.2409262657165527 6.6611714363098145 173 176 169
-0.17953088879585266 -0.2580101191997528 7.039937496185303 176 161 154
-1.6423426866531372 1.5362274646759033 6.473190784454346 130 168 187
-0.257183313369751 0.08545571565628052 7.041311740875244 157 179 177
0.11566424369812012 0.20341727137565613 7.015435218811035 120 143 135
-1.2612509727478027 1.4235868453979492 6.3174262046813965 184 192 215
-0.02204142138361931 -0.05890384688973427 6.976504802703857 121 134 125
0.055144209414720535 -0.031576551496982574 6.978140354156494 124 137 119
-0.1256956160068512 1.3218269348144531 6.275274276733398 68 106 145
-0.028592605143785477 -0.7082763910293579 7.587349891662598 68 77 72
-1.091811180114746 1.4342106580734253 6.270049095153809 189 177 197
-0.13045267760753632 1.3327568769454956 6.272773265838623 25 29 66
0.21765650808811188 0.27895984053611755 7.076176643371582 125 152 171
0.04754902049899101 0.11316321790218353 6.985732078552246 62 72 74
-0.3232521712779999 -0.01598571613430977 7.053579807281494 135 147 147
0.3426537811756134 -0.12120775133371353 7.042510986328125 72 91 89
-0.04127800092101097 0.07179661840200424 6.977110385894775 130 147 137
0.3623846769332886 -0.14028994739055634 7.039887428283691 188 208 199
0.3090762197971344 -0.27834486961364746 7.065067291259766 67 76 83
-0.16897547245025635 0.15816284716129303 7.026310920715332 92 110 110
-0.050436653196811676 -0.15130934119224548 6.983944892883301 170 176 176
0.014462933875620365 -0.06169649213552475 6.976468086242676 78 81 90
-0.2449643909931183 -0.01717015542089939 7.027346611022949 157 172 165
0.006577358581125736 -0.07093255966901779 6.977505683898926 51 59 72
-0.18306364119052887 0.29536330699920654 7.096438407897949 69 67 70
-0.07649821043014526 -0.2859461307525635 7.016750812530518 187 199 177
-1.4442170858383179 1.663144826889038 6.400358200073242 58 72 98
0.0016232157358899713 -0.03884297236800194 6.974417686462402 154 171 152
-0.21794429421424866 -0.029021061956882477 7.0204548835754395 164 176 174
0.025042671710252762 -0.6276190280914307 7.319058895111084 187 172 151
-0.93924880027771 1.6180363893508911 6.269954204559326 108 126 128
-0.24561293423175812 -0.4220391809940338 7.166549205780029 208 184 174
-0.24134744703769684 -0.18596699833869934 7.028303623199463 169 157 145
-0.3245483338832855 1.710237741470337 6.057801246643066 86 75 118
0.10437583178281784 0.32390424609184265 7.068164348602295 97 107 99
-0.21576064825057983 0.16748137772083282 7.042158603668213 91 99 101
-0.7771846652030945 1.6565059423446655 6.190916538238525 51 43 66
-1.4164414405822754 1.552643895149231 6.4137749671936035 111 153 178
0.10542777180671692 -0.2591894865036011 6.997220516204834 201 212 206
-0.07967130839824677 -0.21874159574508667 6.999185562133789 185 196 190
0.3124329745769501 0.20714041590690613 7.070362091064453 132 160 181
0.16412004828453064 -0.10399086028337479 6.983860492706299 181 201 192
-0.21257519721984863 1.0583847761154175 6.328453540802002 33 33 41
0.34364792704582214 0.05737321451306343 7.065512180328369 51 56 75
-0.44106054306030273 1.627344012260437 6.133952617645264 94 110 144
-1.1177617311477661 1.6184675693511963 6.323303699493408 135 158 189
0.18354696035385132 -0.3748086392879486 7.062118053436279 203 219 206
-0.27951645851135254 0.10382657498121262 7.0499796867370605 79 91 77
-0.0030281764920800924 -0.08126655220985413 6.9806365966796875 141 139 118
-0.9126253128051758 1.4811336994171143 6.211926460266113 76 69 136
-0.025067485868930817 -0.23239777982234955 6.99732780456543 202 218 205
0.06505334377288818 0.2544073760509491 7.034029006958008 113 127 128
-0.1689862459897995 1.1061513423919678 6.3062028884887695 103 136 171
0.007512773387134075 -0.16158442199230194 6.973422527313232 148 144 141
0.19861602783203125 0.0743165984749794 6.996688365936279 150 172 170
-0.18222787976264954 -0.22753126919269562 7.026610374450684 162 155 147
0.21753977239131927 1.30032217502594 7.086565017700195 141 151 127
-0.5694186687469482 1.644676685333252 6.132918834686279 55 81 96
0.47927626967430115 -0.14163894951343536 7.118599891662598 69 78 73
-1.0138109922409058 1.603873372077942 6.287013530731201 130 163 180
-0.40111806988716125 1.548003077507019 6.08209228515625 98 121 139
0.7763254642486572 -0.8510337471961975 7.476941108703613 104 107 98
-0.04955027624964714 -0.13403692841529846 6.975451946258545 79 79 87
-0.1983051300048828 1.166143774986267 6.2743916511535645 56 72 106
-0.2937965393066406 -0.04191896319389343 7.047398567199707 165 175 176
-0.1508353054523468 1.325075387954712 6.267806053161621 71 106 144
-0.9174954891204834 -0.11884618550539017 8.042269706726074 111 99 99
-0.15284568071365356 1.1615995168685913 6.290555953979492 149 182 187
0.15177090466022491 0.7423310875892639 7.488522529602051 86 83 74
-0.025067485868930817 -0.23239777982234955 6.99732780456543 202 218 205
0.633776843547821 1.2996338605880737 7.621119499206543 108 105 96
-0.058905020356178284 -0.2423475831747055 7.007984161376953 163 180 164
-0.7958314418792725 1.2328314781188965 6.762604236602783 108 112 113
-0.32663729786872864 -0.29467448592185974 7.119713306427002 192 173 159
-0.16600356996059418 -0.12822557985782623 7.004119873046875 170 168 153
0.3062343895435333 0.28048765659332275 7.0940117835998535 115 151 175
0.12102922052145004 0.3604186773300171 7.104116439819336 83 82 87
0.20248663425445557 0.09804241359233856 7.005226135253906 156 173 163
-0.17677773535251617 1.0932904481887817 6.309314250946045 110 137 144
-0.8613135814666748 1.2450498342514038 6.694494247436523 177 182 159
0.48497000336647034 0.12992040812969208 7.153172016143799 140 156 169
0.13906270265579224 0.06971028447151184 6.981671333312988 169 185 184
0.47886475920677185 -0.09083207696676254 7.106219291687012 148 163 156
-0.9593347311019897 1.285935401916504 6.637144565582275 39 47 49
-0.9284754991531372 1.3989551067352295 6.373396396636963 131 145 156
0.7589179873466492 -0.8007574081420898 7.4812331199646 155 161 123
0.5951651334762573 -0.81000816822052 7.529266834259033 55 60 54
-0.15919776260852814 -0.4324381947517395 7.130733489990234 219 201 199
-0.23503823578357697 -0.1401282101869583 7.017643451690674 159 156 137
0.26434415578842163 -0.36334890127182007 7.083986282348633 215 227 213
-0.13375860452651978 1.1822389364242554 6.295620918273926 65 72 88
0.19679972529411316 -0.09603793919086456 6.988348484039307 167 179 179
-0.9681808352470398 1.4621877670288086 6.230030059814453 41 55 104
-0.8645485639572144 1.400762915611267 6.355246543884277 46 52 52
-0.6760110259056091 1.5105226039886475 6.149869918823242 28 41 85
-0.17209956049919128 -0.17779949307441711 7.012569427490234 167 169 155
0.3090762197971344 -0.27834486961364746 7.065067291259766 67 76 83
0.052806973457336426 -0.3023263216018677 7.018365383148193 204 220 210
-0.7038862705230713 0.6083028316497803 8.022271156311035 78 65 72
0.13020238280296326 -0.09941788017749786 6.9671430587768555 145 157 153
0.7961728572845459 -0.8677730560302734 7.463945388793945 190 193 172
0.042903490364551544 -0.4127415418624878 7.070083141326904 204 216 204
-0.1648324429988861 0.17622923851013184 7.037400722503662 147 173 172
-0.5866076350212097 1.646332859992981 6.129176616668701 43 52 59
0.4973224699497223 -0.7103044390678406 7.586092472076416 113 87 86
-0.27428221702575684 0.23550046980381012 7.095149040222168 147 162 159
-0.9948667287826538 0.6750861406326294 8.13076114654541 119 105 118
-0.04127800092101097 0.07179661840200424 6.977110385894775 130 147 137
0.37772858142852783 0.1972699910402298 7.095523357391357 128 151 165
-1.0840933322906494 1.280505895614624 6.627383232116699 175 179 165
-1.0375795364379883 1.4726215600967407 6.240786552429199 72 79 121
-1.2137434482574463 1.6527109146118164 6.338171005249023 94 83 126
0.5392570495605469 -0.8672291040420532 7.569760322570801 192 183 174
-0.03041965700685978 1.7435945272445679 5.963765621185303 89 81 118
-0.13238367438316345 -0.07282419502735138 6.9925689697265625 157 174 166
-0.1667940318584442 0.3057251274585724 7.092325210571289 49 58 53
-0.20204249024391174 1.070626974105835 6.327786445617676 184 219 225
-0.0623357892036438 0.01983134262263775 6.974490165710449 134 148 133
0.3084709346294403 -0.404167503118515 7.1226348876953125 220 237 221
-0.6080191135406494 1.4528188705444336 6.149998188018799 150 174 178
-0.37312331795692444 -0.1847565919160843 7.109273910522461 178 163 158
-0.7019046545028687 1.4493138790130615 6.157758712768555 117 100 116
0.6794850826263428 -0.5733657479286194 7.552457809448242 121 117 118
0.0011223260080441833 -0.23495987057685852 6.993093967437744 194 209 202
0.26759883761405945 -0.3078373670578003 7.092397689819336 211 229 217
0.09999699890613556 0.27621185779571533 7.034107208251953 127 149 147
-1.1252959966659546 1.4774785041809082 6.286811351776123 47 64 120
-0.17112194001674652 0.3202569782733917 7.097574234008789 117 110 104
0.1357143223285675 0.3242976665496826 7.073637962341309 119 138 144
0.3887374997138977 0.04895954579114914 7.055482864379883 66 66 76
-1.0867441892623901 1.659898281097412 6.302551746368408 92 91 125
-0.37525269389152527 0.225587397813797 7.144103527069092 103 115 113
-0.21153801679611206 -0.19483618438243866 7.039846897125244 176 170 158
-0.9088264107704163 1.4022105932235718 6.372379779815674 43 49 49
-1.0706523656845093 0.8637095093727112 7.655559539794922 180 164 139
-0.9881430268287659 1.3999691009521484 6.3900227546691895 39 41 40
-0.031372055411338806 0.8004799485206604 7.629110813140869 25 26 30
-0.022315287962555885 -0.17583692073822021 6.987586498260498 156 159 140
-0.002371709095314145 0.14034070074558258 7.008462905883789 154 174 165
-0.050436653196811676 -0.15130934119224548 6.983944892883301 170 176 176
-1.1164084672927856 1.2924041748046875 6.6189799308776855 182 185 176
-0.05847667530179024 1.13936448097229 6.340669631958008 50 68 116
-0.3861527740955353 0.1982446014881134 7.1429595947265625 85 101 100
0.0738203376531601 0.7225072383880615 7.530195236206055 12 18 18
0.1953473836183548 1.3968939781188965 6.582895755767822 30 34 35
0.1525452733039856 -0.20103228092193604 6.993793964385986 199 210 194
0.17069238424301147 -0.2820718288421631 7.025899887084961 165 183 169
-1.1027275323867798 1.3370696306228638 6.607677936553955 17 15 18
-0.9794853925704956 1.2588382959365845 6.6429033279418945 52 66 79
0.13984566926956177 -0.3682518005371094 7.049674034118652 213 226 206
-0.1449955403804779 -0.34666213393211365 7.066883563995361 209 224 219
0.14510540664196014 -0.17498578131198883 6.982808589935303 168 181 161
-0.9235506057739258 0.15651217103004456 8.067895889282227 103 94 99
-0.29455599188804626 0.24478910863399506 7.095870494842529 105 114 113
-0.8488720059394836 1.2788792848587036 6.669061660766602 117 122 116
0.23392926156520844 0.1585049331188202 7.025790691375732 137 170 179
0.4854860305786133 -0.28804725408554077 7.172776699066162 188 191 182
-1.0518089532852173 1.620762825012207 6.291187763214111 132 158 185
-1.3230030536651611 1.6318491697311401 6.370944976806641 54 48 74
-0.7336334586143494 1.6831642389297485 6.192267417907715 105 90 133
-0.20551525056362152 -0.35668760538101196 7.089013576507568 206 193 187
-0.8645485639572144 1.400762915611267 6.355246543884277 46 52 52
0.4953763484954834 1.3077175617218018 7.690370559692383 135 137 113
-0.1037716493010521 -0.4358855187892914 7.117450714111328 210 214 200
0.10437583178281784 0.32390424609184265 7.068164348602295 97 107 99
-0.4621411859989166 -0.2530713379383087 7.201725959777832 185 178 160
-0.953372597694397 1.414493441581726 6.364994525909424 157 157 183
-0.34718015789985657 -0.31875091791152954 7.154998302459717 195 191 179
0.2260017991065979 -0.4467089772224426 7.14277982711792 219 239 230
0.3351413607597351 0.15109491348266602 7.067694187164307 115 145 156
0.43874627351760864 0.18860378861427307 7.123595237731934 132 160 172
0.12303666770458221 -0.378260999917984 7.060852527618408 125 139 124
-1.4352830648422241 1.6527025699615479 6.405083656311035 26 23 50
-0.02204142138361931 -0.05890384688973427 6.976504802703857 121 134 125
-0.06337551772594452 -0.18421179056167603 7.004544258117676 149 163 150
-0.3012407422065735 -0.3237314820289612 7.129848480224609 187 177 175
-0.08453837782144547 1.233312726020813 6.31449031829834 38 43 62
-1.7824416160583496 1.787871241569519 5.54636287689209 155 209 255
0.5145776271820068 0.037742823362350464 7.1402130126953125 123 126 119
0.02889488823711872 0.2863331139087677 7.044905185699463 125 137 125
0.0012002935400232673 0.30035337805747986 7.049953460693359 96 72 68
0.2369305044412613 0.13925616443157196 7.018427848815918 147 177 188
0.540286123752594 -0.16561467945575714 7.158405780792236 139 131 118
-0.5012395977973938 1.6273648738861084 6.1234660148620605 97 113 146
0.41232967376708984 0.06411036849021912 7.069578647613525 156 177 180
0.21800349652767181 0.3101746141910553 7.089327335357666 123 147 173
-0.133145272731781 -0.026231111958622932 6.988533973693848 53 58 61
0.6904339790344238 -0.7959007024765015 7.50909423828125 127 123 111
0.17794384062290192 -0.06856495887041092 6.987998962402344 176 190 177
-0.45317742228507996 1.4224592447280884 6.223094463348389 42 40 41
0.12922050058841705 1.321891188621521 6.966334342956543 130 138 140
-0.1611456722021103 -0.3827732801437378 7.093887805938721 221 218 203
-1.3288038969039917 1.5881024599075317 6.398373603820801 122 164 180
-0.41346314549446106 -0.04197428748011589 7.116706848144531 81 82 87
-1.61526358127594 1.6477556228637695 6.4456610679626465 89 110 127
0.3659960925579071 0.21099348366260529 7.097963809967041 52 63 83
-1.1804543733596802 1.6584023237228394 6.337954044342041 98 90 129
-0.07800758630037308 -0.15223383903503418 6.990276336669922 184 199 194
-1.6917732954025269 1.4835548400878906 6.469383239746094 158 221 255
-0.7923281788825989 0.9109702706336975 7.355615615844727 93 83 73
-0.3461783528327942 -0.2201915979385376 7.094349384307861 193 180 172
-0.5234724879264832 1.1959055662155151 6.800876617431641 149 159 184
0.2606699764728546 -0.4071432650089264 7.115938186645508 131 141 133
-0.15045945346355438 1.4330406188964844 6.2824387550354 61 48 58
0.006577358581125736 -0.07093255966901779 6.977505683898926 51 59 72
-1.1044025421142578 1.2756680250167847 6.64493989944458 49 57 59
-0.7589216232299805 1.4918370246887207 6.166280269622803 69 65 116
0.1424493044614792 0.11302031576633453 6.9884772300720215 161 179 181
-1.5107566118240356 1.4593580961227417 6.4140119552612305 39 50 78
-0.42861488461494446 0.2046433538198471 7.154018402099609 92 107 112
0.5821247696876526 -0.17065787315368652 7.228627681732178 136 120 107
-0.9176135063171387 1.669013500213623 6.250454425811768 102 94 135
-1.1743217706680298 1.1911391019821167 7.0064239501953125 137 167 203
-0.3856772482395172 -0.043311890214681625 7.089422702789307 167 169 166
0.2418983429670334 -0.41420117020606995 7.122075080871582 214 227 210
-0.41449058055877686 -0.17708437144756317 7.134109973907471 144 132 120
-1.380130648612976 1.425329327583313 6.357832431793213 50 57 111
-0.0850684642791748 1.233783483505249 6.317551612854004 36 40 52
0.17313440144062042 -0.5497690439224243 7.237648963928223 165 177 175
-0.9418507814407349 1.2730767726898193 6.653290271759033 47 51 63
-0.8889743089675903 -0.34324952960014343 7.969257831573486 101 92 97
-0.7768672704696655 1.2445878982543945 6.751478672027588 167 174 158
-0.051828596740961075 0.2861364185810089 7.059141159057617 55 48 64
0.006768135353922844 0.0779830664396286 6.97567081451416 156 175 169
-0.29455599188804626 0.24478910863399506 7.095870494842529 105 114 113
-0.5599856376647949 1.0404545068740845 7.161557674407959 140 125 102
0.3258204162120819 -0.0015724216355010867 7.025595664978027 125 135 137
0.17794384062290192 -0.06856495887041092 6.987998962402344 176 190 177
-1.4190409183502197 1.4257142543792725 6.372931480407715 41 43 84
0.025317968800663948 0.3035030961036682 7.063273906707764 86 71 66
-0.7555674314498901 1.4167273044586182 6.344465255737305 143 163 172
0.5469646453857422 0.602951169013977 7.654660224914551 42 43 48
-0.3132987916469574 1.5361909866333008 6.045719623565674 39 45 61
-1.563530445098877 1.5902361869812012 6.448821544647217 135 159 161
-0.39230668544769287 0.17267566919326782 7.139361381530762 84 88 89
-0.30539897084236145 -0.1221483051776886 7.055789947509766 177 193 180
0.45216992497444153 -0.5660666823387146 7.572360515594482 71 68 59
-0.20210053026676178 0.17532435059547424 7.0428361892700195 140 156 143
0.4519617259502411 -0.03758629038929939 7.088898658752441 117 110 104
-1.7824416160583496 1.787871241569519 5.54636287689209 155 209 255
-0.133145272731781 -0.026231111958622932 6.988533973693848 53 58 61
0.05267520621418953 -0.1280333697795868 6.951589584350586 125 108 100
-0.023676365613937378 0.2662191390991211 7.037299156188965 124 136 134
0.09096577763557434 -0.29698628187179565 7.009768486022949 205 217 207
-0.3375108540058136 -0.17298443615436554 7.081556797027588 176 184 169
0.23637142777442932 -0.23982591927051544 7.0166707038879395 166 189 173
0.6545348167419434 -0.8760654330253601 7.505764961242676 202 203 189
0.06316051632165909 0.28866228461265564 7.050415515899658 72 77 83
0.052402839064598083 0.0038615837693214417 6.9732184410095215 106 126 125
0.18268632888793945 -0.17532126605510712 6.983530521392822 180 197 189
0.2085389941930771 0.1753273457288742 7.027709484100342 155 179 181
-1.0534025430679321 1.372538685798645 6.649592876434326 41 42 37
-0.40912216901779175 -0.09996248781681061 7.1128950119018555 170 180 169
-0.23094432055950165 1.0542583465576172 6.341449737548828 51 63 105
-0.244066059589386 0.2201310396194458 7.077136039733887 155 161 157
0.2889419496059418 1.3111869096755981 7.0999531745910645 169 182 173
-0.01475651003420353 1.2566940784454346 6.343642234802246 179 203 205
0.614701509475708 -0.7496047616004944 7.539119243621826 126 111 114
-0.10428507626056671 0.27297458052635193 7.051804065704346 46 53 59
-0.07582075893878937 0.28950440883636475 7.062162399291992 70 59 63
-0.19465145468711853 0.41118505597114563 7.168013095855713 104 124 113
-0.898857593536377 -0.6409569978713989 8.000853538513184 99 90 93
0.35155749320983887 0.04049904644489288 7.047989368438721 147 165 165
0.34364792704582214 0.05737321451306343 7.065512180328369 51 56 75
-0.19073085486888885 1.0585819482803345 6.326037883758545 50 63 97
0.26440101861953735 1.379316806793213 6.706930160522461 155 158 165
0.1745409369468689 1.3201873302459717 6.980422496795654 145 155 157
0.47927626967430115 -0.14163894951343536 7.118599891662598 69 78 73
-0.3130605220794678 -0.40840017795562744 7.194178104400635 197 180 164
-1.473267912864685 1.4934446811676025 6.415165424346924 104 134 172
0.1564514935016632 -0.2522536516189575 6.99981689453125 87 93 89
-1.1618064641952515 1.3348467350006104 6.535087585449219 193 198 192
-0.9395409822463989 1.3246526718139648 6.639834880828857 20 30 29
0.45383453369140625 -0.2842429280281067 7.122110366821289 183 195 175
0.4927794337272644 0.19072121381759644 7.168763160705566 39 56 86
-0.28759902715682983 1.4162979125976562 6.280066967010498 27 31 43
-0.7941988110542297 1.4421476125717163 6.190425395965576 111 95 105
-0.9909505248069763 1.3138750791549683 6.6364288330078125 21 27 25
-0.8911098837852478 1.2692316770553589 6.655229568481445 144 155 139
-1.1136177778244019 1.2379539012908936 6.667797565460205 169 171 168
-1.5536863803863525 1.3508546352386475 6.81475830078125 129 120 151
-0.13087423145771027 -0.14823636412620544 7.007005214691162 169 182 175
-0.20030932128429413 0.44793522357940674 7.213423252105713 40 65 70
-0.9503058195114136 1.666603922843933 6.256128311157227 94 87 120
-0.32896068692207336 0.015139917843043804 7.0678582191467285 52 66 67
0.39743420481681824 0.18110550940036774 7.100384712219238 97 113 126
0.41396164894104004 0.3445976674556732 7.2077484130859375 31 52 83
-0.041234783828258514 -0.359237939119339 7.056092739105225 219 236 228
-0.27372637391090393 0.9661442041397095 7.331526756286621 112 122 114
0.2643592655658722 0.3924669921398163 7.148516654968262 82 102 109
0.10837259143590927 1.4001946449279785 6.5279927253723145 163 173 165
-0.25629785656929016 -0.39165252447128296 7.145655632019043 197 176 171
-0.09312550723552704 1.208587408065796 6.316092491149902 166 190 200
-0.024433840066194534 -0.2057143896818161 6.991212844848633 204 210 198
-0.09243400394916534 1.066732406616211 6.3499226570129395 66 102 124
-0.8997905254364014 1.4638378620147705 6.221743106842041 74 63 105
0.43997493386268616 1.0667812824249268 7.697013854980469 82 81 77
-0.7773974537849426 0.8952378034591675 7.3656325340271 83 89 79
-0.7240842580795288 1.565890908241272 6.177023887634277 102 127 131
0.35020753741264343 0.33800727128982544 7.1587300300598145 48 65 75
-0.606746256351471 -0.6562265157699585 7.903810977935791 88 78 87
0.25944438576698303 -0.3413545787334442 7.084429740905762 190 206 179
-0.2571735084056854 0.052611805498600006 7.0311598777771 108 128 126
-0.2583761513233185 -0.1540384739637375 7.047980308532715 149 140 131
-1.9081103801727295 1.7711942195892334 5.558016777038574 156 206 255
0.23749123513698578 0.36052054166793823 7.128400802612305 41 54 71
-0.05962830036878586 0.23049120604991913 7.025378227233887 141 161 162
-0.11418037116527557 1.0975258350372314 6.318076133728027 112 136 170
-0.03866850957274437 -0.12543635070323944 6.977526664733887 165 167 153
-0.14577053487300873 -0.18299241364002228 7.000293731689453 188 189 173
-1.1650164127349854 1.3687838315963745 6.515371799468994 46 49 54
0.47675907611846924 0.05795799940824509 7.1206841468811035 46 54 77
0.19679972529411316 -0.09603793919086456 6.988348484039307 167 179 179
0.16750802099704742 0.1477244347333908 7.005275726318359 132 154 165
-0.7024964690208435 1.4277350902557373 6.343772888183594 150 169 184
-0.2937965393066406 -0.04191896319389343 7.047398567199707 165 175 176
0.49018019437789917 -0.31453096866607666 7.220198154449463 183 185 171
0.16828319430351257 -0.44703420996665955 7.119867324829102 230 247 231
0.5979794263839722 -0.15778930485248566 7.245244979858398 58 63 66
-0.4418529272079468 -0.2765718102455139 7.1992340087890625 89 82 90
-0.1481095403432846 1.0583215951919556 6.335300445556641 27 45 91
-0.26054543256759644 -0.10578376799821854 7.047045707702637 166 176 175
0.06129496917128563 -0.5058138966560364 7.164885997772217 226 243 235
-0.765526294708252 1.449644684791565 6.1955366134643555 119 98 103
0.2341846525669098 0.007473465986549854 7.001945972442627 157 182 176
0.14747005701065063 0.16141127049922943 7.011995315551758 129 147 151
-0.20147524774074554 1.1413209438323975 6.279265880584717 55 79 123
0.5026984214782715 1.2448619604110718 7.6529388427734375 166 162 135
0.46414995193481445 0.3082178235054016 7.232676029205322 38 47 76
-0.19475524127483368 -0.38241541385650635 7.106023788452148 208 201 191
7.775246922392398e-05 0.19418179988861084 6.9989118576049805 108 126 110
-0.010799145326018333 -0.22251975536346436 6.9967265129089355 67 75 77
-0.25700756907463074 -0.017753496766090393 7.0323333740234375 143 156 147
0.6026647686958313 -0.7666930556297302 7.554947376251221 81 71 79
-1.9081103801727295 1.7711942195892334 5.558016777038574 156 206 255
-1.6269980669021606 1.6340999603271484 6.459921360015869 148 158 150
-0.386701375246048 -0.21590398252010345 7.1341142654418945 173 151 137
-1.0255948305130005 1.3909231424331665 6.401639938354492 67 65 89
-0.4510880708694458 1.6957430839538574 6.087081432342529 86 78 101
0.49353861808776855 -0.08295691013336182 7.112223148345947 72 86 87
-0.3375108540058136 -0.17298443615436554 7.081556797027588 176 184 169
0.041032690554857254 -0.5191448330879211 7.1942877769470215 224 235 227
-0.11772182583808899 1.4938702583312988 5.958329677581787 163 151 165
-0.10096494853496552 -0.45777249336242676 7.145715713500977 110 105 111
-0.90555739402771 1.2733583450317383 6.64813232421875 182 183 175
-1.4613388776779175 1.4078162908554077 6.359170436859131 95 102 121
0.49223896861076355 -0.1548088937997818 7.114144325256348 171 177 167
-1.1044025421142578 1.2756680250167847 6.64493989944458 49 57 59
-0.8613135814666748 1.2450498342514038 6.694494247436523 177 182 159
-0.27792033553123474 1.411033272743225 6.281854152679443 13 19 33
-0.39669346809387207 0.2135540246963501 7.153254985809326 149 164 159
-0.0037452976685017347 -0.04962516576051712 6.995613098144531 62 76 76
-1.1889128684997559 1.476155400276184 6.3134002685546875 63 75 99
-0.02330170013010502 -0.45259663462638855 7.115617752075195 225 242 234
-1.6408581733703613 1.5987416505813599 6.491929531097412 118 146 170
-0.9257776141166687 1.4367303848266602 6.235620975494385 119 105 128
-1.205557942390442 1.3769645690917969 6.531059741973877 61 58 79
0.14944864809513092 -0.5383708477020264 7.226140975952148 223 240 224
0.797728419303894 -0.7155591249465942 7.480910778045654 137 142 112
0.2284058928489685 1.3739815950393677 6.6316094398498535 197 213 210
-0.030652105808258057 1.408328890800476 6.367012023925781 8 7 12
-0.7127476334571838 1.2888787984848022 6.7789130210876465 16 21 25
-1.1137330532073975 1.425805926322937 6.28971004486084 122 108 131
0.2699663043022156 -0.2596418261528015 7.032870292663574 205 217 193
-0.07531464099884033 -0.5055874586105347 7.17808723449707 209 229 220
0.41595569252967834 0.01777760311961174 7.06621789932251 81 95 108
-0.5889829993247986 1.4494235515594482 6.1537628173828125 156 163 171
0.19143712520599365 0.3817218840122223 7.124231815338135 88 89 83
0.25513917207717896 0.7550159096717834 7.4728684425354 78 88 89
-0.004263572860509157 -0.15800099074840546 6.9833598136901855 62 62 52
-0.11355642974376678 0.31379833817481995 7.077868461608887 113 113 103
-0.32557937502861023 0.3549199402332306 7.1847639083862305 125 136 119
-1.6953126192092896 1.6226756572723389 6.514156818389893 150 160 170
-1.8169513940811157 1.7783390283584595 5.542023658752441 152 210 255
-0.8297921419143677 1.2420014142990112 6.707274436950684 174 178 155
0.2848779857158661 0.028968026861548424 7.002960681915283 127 145 149
-1.5935133695602417 1.6611974239349365 6.440427303314209 77 112 140
-0.022269925102591515 1.6364549398422241 5.980351448059082 110 144 172
-0.7954901456832886 1.3157466650009155 6.688379287719727 29 31 28
-1.5855755805969238 1.4804069995880127 6.4606218338012695 55 58 93
0.4112851321697235 0.30515822768211365 7.183424472808838 94 115 146
-0.8848930597305298 1.4808259010314941 6.203240394592285 82 77 135
-0.2217227667570114 0.14660093188285828 7.051663398742676 103 120 112
0.6651736497879028 0.7507794499397278 7.628827095031738 88 68 79
-0.08835446089506149 1.3613663911819458 6.354896545410156 16 21 40
-0.884458065032959 1.2626681327819824 6.67203950881958 41 49 52
0.4114791750907898 0.3312947750091553 7.202971458435059 43 57 83
0.27747878432273865 -0.39739036560058594 7.111982822418213 236 244 233
-0.5458533763885498 1.6953213214874268 6.1115522384643555 70 64 112
-0.7344051599502563 1.2446727752685547 6.785388469696045 167 171 156
-0.770251452922821 1.2329832315444946 6.75834321975708 120 123 114
0.014760532416403294 1.4954454898834229 5.9954514503479 132 118 141
0.48666802048683167 -0.7378495335578918 7.595227241516113 125 111 110
-1.11763334274292 1.2453216314315796 6.643527984619141 173 186 177
-0.06702154874801636 1.255641222000122 6.319912910461426 164 191 198
-0.3015211820602417 0.2788279950618744 7.123165607452393 116 128 128
0.5426722764968872 -0.1375872641801834 7.138463497161865 148 142 118
-0.27543210983276367 -0.18074481189250946 7.041420936584473 165 154 148
-0.26974886655807495 0.4463858902454376 7.2348809242248535 112 122 111
0.24713118374347687 -0.1391734629869461 6.984813690185547 190 206 196
-0.12189310789108276 -0.5186821222305298 7.210115432739258 138 149 135
-1.1609317064285278 1.346075177192688 6.5302534103393555 72 76 77
0.05486631393432617 1.4275457859039307 6.4370927810668945 34 34 42
-0.39366284012794495 0.016020281240344048 7.103600025177002 130 128 116
0.5912964940071106 -0.0022229980677366257 7.213286399841309 134 149 152
-0.7448614239692688 1.2534159421920776 6.765167713165283 175 186 172
0.006915092468261719 -0.19257092475891113 6.984732151031494 188 191 184
0.38413527607917786 0.3528006672859192 7.19759464263916 85 115 141
0.4973224699497223 -0.7103044390678406 7.586092472076416 113 87 86
-0.27597764134407043 0.32757124304771423 7.1559367179870605 74 89 82
0.7286999821662903 -0.25995251536369324 7.531190395355225 84 74 73
-0.6087641716003418 1.4629427194595337 6.113635540008545 141 140 180
0.04545581713318825 0.2731058597564697 7.045704364776611 55 75 74
0.31573840975761414 -0.3473761975765228 7.0988898277282715 184 205 198
-0.1398572325706482 -0.534216046333313 7.240754127502441 218 235 225
0.5272981524467468 -0.10690943896770477 7.145009517669678 129 137 124
0.5098170638084412 0.1734202653169632 7.156306743621826 124 144 171
-0.8012115955352783 1.6962367296218872 6.206665515899658 56 50 110
0.43918541073799133 0.0536937452852726 7.093231201171875 153 172 168
-0.12295174598693848 1.0579742193222046 6.339860916137695 36 44 65
0.18887926638126373 0.3638495206832886 7.106334209442139 39 55 71
-1.1551238298416138 1.4259822368621826 6.27604866027832 159 154 176
-0.9909505248069763 1.3138750791549683 6.6364288330078125 21 27 25
0.23980478942394257 -0.39175504446029663 7.095153331756592 221 225 210
0.15336063504219055 -0.4574374556541443 7.1248555183410645 193 216 210
0.7308344841003418 -0.8605902194976807 7.446497917175293 118 123 119
0.5979794263839722 -0.15778930485248566 7.245244979858398 58 63 66
0.2516216039657593 0.1555326282978058 7.025707244873047 116 147 152
-0.06219933554530144 -0.3748927414417267 7.0637922286987305 194 213 207
0.017466729506850243 1.4344851970672607 6.362855911254883 106 110 119
0.03559881076216698 -0.12414063513278961 6.983395576477051 122 108 95
0.1553448587656021 0.6860028505325317 7.452333450317383 47 51 62
-0.04711640253663063 1.19235360622406 6.33847188949585 37 43 65
-1.6303818225860596 1.4916051626205444 6.465200424194336 106 131 161
-0.40531519055366516 -0.12342076003551483 7.103097915649414 163 177 162
-1.6213942766189575 1.5765739679336548 6.466832637786865 70 96 121
0.23376508057117462 0.42448556423187256 7.188374042510986 43 57 70
0.1321507692337036 1.1565788984298706 7.1353230476379395 216 212 185
-0.35425126552581787 0.07518021762371063 7.100352764129639 109 97 83
-0.35026979446411133 0.1914442479610443 7.127318859100342 55 64 73
0.0420721061527729 -0.2846645414829254 7.026524543762207 176 193 175
0.03948547691106796 1.4840325117111206 6.045424938201904 125 117 140
-1.0908167362213135 1.4067281484603882 6.399237632751465 166 166 176
0.18051064014434814 1.4153469800949097 6.57483434677124 73 74 78
-0.3032313585281372 1.5476410388946533 6.033939361572266 101 125 161
0.6619699001312256 -0.5726227760314941 7.554351806640625 119 107 111
-0.11007695645093918 1.6269069910049438 5.999645709991455 113 148 178
-0.23191994428634644 1.4545575380325317 6.1883368492126465 139 121 133
-0.32328057289123535 0.950332760810852 7.364047527313232 153 164 160
-0.8810362815856934 1.3184772729873657 6.651049613952637 23 23 21
-1.03676438331604 1.4059290885925293 6.394214630126953 167 164 183
-0.7139157652854919 1.2203575372695923 6.85785436630249 160 166 154
0.09999699890613556 0.27621185779571533 7.034107208251953 127 149 147
-0.6009604930877686 1.4777581691741943 6.100818634033203 53 51 91
0.473166823387146 0.03428593650460243 7.123623371124268 55 69 70
0.3851768672466278 1.0148016214370728 7.68889045715332 59 49 57
-0.2053564488887787 0.42702749371528625 7.184465408325195 126 138 134
0.3815891146659851 0.06957028061151505 7.047173500061035 151 171 172
0.2635090947151184 -0.17276820540428162 7.00705623626709 168 180 156
-0.005684645380824804 0.42851337790489197 7.13076114654541 51 42 45
-0.8240944147109985 1.2499240636825562 6.696691036224365 88 95 103
-1.0429866313934326 1.203970193862915 6.9489922523498535 233 245 243
0.007326473481953144 0.0991256907582283 6.987830638885498 124 144 135
0.6598653197288513 -0.7702056169509888 7.5184454917907715 112 91 86
-0.4349198043346405 0.14232014119625092 7.161619186401367 78 84 80
-0.16850808262825012 -0.3228852450847626 7.05951452255249 86 97 99
-0.05705041065812111 -0.1092790961265564 6.975369453430176 90 91 83
-0.13852699100971222 -0.11822687834501266 6.9918060302734375 161 174 167
0.18422822654247284 1.436144471168518 6.455326080322266 153 127 140
-0.1586972177028656 0.45178261399269104 7.188851833343506 97 103 91
0.041228871792554855 -0.16394276916980743 6.9729437828063965 143 120 106
0.44150933623313904 -0.2047753781080246 7.107359409332275 154 170 157
-0.9960501194000244 1.665109634399414 6.266473770141602 91 88 135
-0.17686839401721954 -0.20005090534687042 7.028678894042969 174 164 165
0.5912397503852844 -0.7368296384811401 7.566359519958496 75 66 67
-0.14985227584838867 -0.20646680891513824 7.011905193328857 191 191 181
-1.4613388776779175 1.4078162908554077 6.359170436859131 95 102 121
-0.2217227667570114 0.14660093188285828 7.051663398742676 103 120 112
-0.7751244306564331 -0.6295123100280762 7.958232402801514 75 70 77
0.21688582003116608 -0.4881993234157562 7.1794819831848145 153 172 170
0.22491107881069183 0.34210219979286194 7.111423015594482 114 141 150
-0.19166405498981476 -0.4204011559486389 7.134612560272217 211 185 170
-0.15748758614063263 0.21337057650089264 7.04514217376709 118 128 130
0.17313440144062042 -0.5497690439224243 7.237648963928223 165 177 175
-0.4113022983074188 0.14643029868602753 7.139449119567871 74 77 66
-0.09968055784702301 -0.5127450227737427 7.191318035125732 230 247 237
0.7580355405807495 -0.009229964576661587 7.538290977478027 93 80 87
-1.0641752481460571 1.392217755317688 6.424182891845703 65 54 62
0.38280609250068665 1.153747797012329 7.71934700012207 73 60 69
-0.8964475393295288 0.38110116124153137 8.054336547851562 94 83 99
-0.539011538028717 -0.13355496525764465 7.235198020935059 169 151 149
-0.2686348259449005 1.3625093698501587 6.233046054840088 22 27 56
-0.48746466636657715 1.4124499559402466 6.411231994628906 102 96 122
-0.3171670138835907 -0.8048266172409058 7.819812774658203 128 115 122
0.08365428447723389 -0.1811857670545578 6.976833343505859 171 179 166
-0.2201804667711258 0.18416444957256317 7.051701545715332 145 168 162
-0.01797488145530224 0.05542438104748726 6.986318111419678 132 149 133
-0.7467576861381531 1.5941581726074219 6.197442531585693 117 124 153
0.6520310044288635 0.4330434203147888 7.5902204513549805 44 32 52
-0.08163868635892868 0.03222569078207016 6.9764227867126465 125 142 134
-0.778414785861969 0.9258245229721069 7.35971212387085 76 78 73
-1.8658726215362549 1.7792139053344727 5.568145275115967 150 206 253
-0.6956766843795776 0.8794458508491516 7.2988481521606445 129 140 124
0.5983176231384277 -0.5971514582633972 7.5682759284973145 121 105 105
-0.7536920309066772 0.6178215742111206 8.041224479675293 113 98 105
-1.1743217706680298 1.1911391019821167 7.0064239501953125 137 167 203
-0.2704295516014099 1.2001054286956787 6.265315532684326 107 137 187
0.16636888682842255 1.4223555326461792 6.543789386749268 142 156 159
-0.3057841956615448 -0.22156547009944916 7.075342178344727 180 168 156
-0.022483494132757187 0.08734363317489624 6.9800567626953125 137 155 133
-0.1625179797410965 -0.10053672641515732 7.012187480926514 174 180 176
0.6469928622245789 -0.7107326984405518 7.541020393371582 114 109 113
0.3334965705871582 1.4636318683624268 6.527467250823975 63 66 75
-0.013127624988555908 0.40722203254699707 7.109908580780029 48 48 38
0.03089149110019207 1.3035608530044556 6.319736957550049 54 83 127
-0.8888182640075684 1.289121389389038 6.654385089874268 93 98 94
-0.1615689992904663 -0.5168733596801758 7.215608596801758 126 146 145
0.1912342607975006 -0.7954391837120056 7.666143417358398 125 106 108
0.42399728298187256 -0.3961363136768341 7.189848899841309 192 208 198
-0.39881059527397156 -0.1743052452802658 7.117389678955078 173 166 158
0.34093162417411804 1.1263983249664307 7.6981282234191895 77 67 78
0.14958295226097107 1.4195153713226318 6.529330253601074 152 171 178
-0.034002140164375305 0.424405038356781 7.11042594909668 92 76 76
-1.6385997533798218 1.565112829208374 6.473376274108887 131 162 182
0.018608832731842995 -0.09499257802963257 6.966039657592773 144 137 118
-1.185476303100586 1.3880860805511475 6.502350807189941 161 178 188
0.05725349485874176 0.5764283537864685 7.279993057250977 35 35 37
0.49932292103767395 -0.09606874734163284 7.114095211029053 141 155 140
0.08349097520112991 0.06842269748449326 6.981269359588623 107 128 113
0.25339198112487793 -0.012535341084003448 6.98674201965332 179 197 185
-1.0709171295166016 1.2620165348052979 6.642800807952881 95 97 92
-1.6431175470352173 1.3760957717895508 6.4409403800964355 141 150 147
-1.0224418640136719 1.6602672338485718 6.272014141082764 91 86 108
-0.2718842625617981 -0.49783289432525635 7.26771354675293 129 129 127
0.1314808875322342 0.015169348567724228 6.971007823944092 127 140 131
0.2663467228412628 1.4513157606124878 6.480158805847168 45 37 58
-0.4946426451206207 0.22063089907169342 7.2519450187683105 93 106 112
-0.7954901456832886 1.3157466650009155 6.688379287719727 29 31 28
0.06015150249004364 1.443088412284851 6.3731255531311035 91 78 95
-0.8228269219398499 1.403658390045166 6.360133171081543 65 64 72
0.4955970048904419 -0.1290435492992401 7.111671447753906 165 177 153
-1.035994529724121 1.2614631652832031 6.6484856605529785 182 189 182
-0.20414283871650696 1.4801615476608276 6.003520488739014 109 102 118
0.42399728298187256 -0.3961363136768341 7.189848899841309 192 208 198
0.006304304115474224 1.3744152784347534 6.411869525909424 29 39 66
-0.840858519077301 1.4947236776351929 6.20335054397583 78 81 136
-0.036561597138643265 0.25990307331085205 7.034675121307373 68 92 94
-0.7037082314491272 1.5444766283035278 6.1800432205200195 74 86 86
0.6832648515701294 0.45623841881752014 7.592729091644287 55 45 54
0.44862034916877747 -0.3734409511089325 7.208061218261719 211 219 206
-0.25333741307258606 1.4289599657058716 6.245960235595703 36 36 34
0.15910784900188446 -0.35238462686538696 7.037660598754883 211 231 220
0.09909775853157043 -0.48456019163131714 7.137351989746094 226 239 229
0.2152969092130661 1.4210714101791382 6.573475360870361 146 152 166
-0.02654854580760002 0.20964141190052032 7.003700256347656 115 135 134
-0.13401007652282715 0.25248831510543823 7.059678077697754 121 141 140
-0.4147334098815918 -0.2510510981082916 7.166601181030273 194 181 165
-0.7344051599502563 1.2446727752685547 6.785388469696045 167 171 156
0.11346807330846786 0.034028809517621994 6.967434406280518 128 149 144
0.09345745295286179 0.17371277511119843 7.007576942443848 111 137 134
-0.034459151327610016 0.6918565630912781 7.598114013671875 18 19 21
-0.21061588823795319 1.0136443376541138 7.276569843292236 84 99 96
-0.6861341595649719 1.4632105827331543 6.1505913734436035 189 182 189
-0.7543679475784302 -0.41310328245162964 7.969118595123291 80 69 83
0.4105413854122162 1.2922513484954834 7.711117267608643 27 27 39
-0.1005166694521904 -0.20384852588176727 7.001663684844971 112 117 97
0.21688582003116608 -0.4881993234157562 7.1794819831848145 153 172 170
0.038427405059337616 -0.2986010015010834 7.013363838195801 207 218 210
-0.410608172416687 0.3508433997631073 7.280210971832275 118 139 140
-0.3799818754196167 -0.23371979594230652 7.1239013671875 177 147 139
-0.1566261202096939 1.2922970056533813 6.283904075622559 55 79 117
-0.05714229866862297 1.6343355178833008 5.9901204109191895 118 151 186
0.23885446786880493 -0.36800846457481384 7.080477237701416 212 230 218
0.5929446816444397 0.088621586561203 7.2383599281311035 122 132 144
0.38629937171936035 -0.43972349166870117 7.203469276428223 218 235 219
-0.22971093654632568 1.03156578540802 6.334033966064453 46 49 90
-0.16978244483470917 1.4811609983444214 6.036048889160156 123 124 142
-0.17281146347522736 0.7370059490203857 7.652235984802246 60 62 59
0.07145154476165771 -0.5476737022399902 7.207726955413818 231 245 228
-1.4911553859710693 1.6372650861740112 6.4239115715026855 67 77 69
-1.4338719844818115 1.4390981197357178 6.371869087219238 19 34 73
-0.56170654296875 1.623681664466858 6.111001491546631 42 63 90
-1.232871413230896 1.35693359375 6.569119453430176 150 156 156
-0.036561597138643265 0.25990307331085205 7.034675121307373 68 92 94
0.17929036915302277 0.18241819739341736 7.01842737197876 117 145 149
-0.7101519703865051 1.4451041221618652 6.198432445526123 143 136 154
-1.5997347831726074 1.4127860069274902 6.409425258636475 80 105 127
-0.2861470580101013 1.3647496700286865 6.254360675811768 24 28 55
-0.021709837019443512 1.0717577934265137 7.202950477600098 110 120 112
-0.024302957579493523 -0.5092862844467163 7.171388149261475 227 243 233
-0.14997895061969757 0.4584788382053375 7.1920166015625 50 61 55
-0.14985227584838867 -0.20646680891513824 7.011905193328857 191 191 181
-0.057890281081199646 -0.5378867983818054 7.2079949378967285 161 179 179
-0.1753588318824768 0.1183505430817604 7.018312454223633 153 171 171
0.15871930122375488 -0.5703971982002258 7.255913734436035 154 165 151
0.5020519495010376 0.2091672271490097 7.171501636505127 121 153 176
0.3041084110736847 -0.49036282300949097 7.216426372528076 203 220 202
-0.25838372111320496 1.714448094367981 6.032849311828613 78 81 116
-0.6328743696212769 1.425442099571228 6.31028938293457 152 167 188
-1.6385997533798218 1.565112829208374 6.473376274108887 131 162 182
-0.42041078209877014 0.021792180836200714 7.11863374710083 117 113 110
0.08266576379537582 1.4028797149658203 6.495011329650879 148 155 148
0.6416097283363342 1.3196734189987183 7.639089107513428 168 159 130
-0.6638340353965759 1.3985049724578857 6.340691089630127 51 52 56
0.4973224699497223 -0.7103044390678406 7.586092472076416 113 87 86
-0.9917609095573425 1.2010223865509033 6.945913791656494 230 242 238
-0.13889522850513458 0.29918020963668823 7.079081058502197 77 71 73
0.014821826480329037 -0.4339539110660553 7.08229923248291 202 213 205
-1.56427800655365 1.3930201530456543 6.493929862976074 129 140 132
-0.6638340353965759 1.3985049724578857 6.340691089630127 51 52 56
0.162563756108284 -0.8148850202560425 7.687576770782471 120 104 107
0.2418418675661087 1.6181687116622925 6.207063674926758 191 195 204
-0.2578872740268707 1.3367935419082642 6.228318214416504 25 28 47
-0.6563897728919983 1.4613442420959473 6.125784397125244 174 189 196
0.09838268905878067 -0.5931211113929749 7.3010430335998535 176 176 168
-0.4193978011608124 0.1671157032251358 7.150332450866699 135 150 155
-0.36313092708587646 0.31820186972618103 7.172393798828125 138 156 166
-1.124954342842102 1.6627607345581055 6.3328857421875 98 94 111
0.4136708378791809 -0.6660625338554382 7.613654613494873 118 112 114
-0.8338570594787598 1.2660897970199585 6.692141532897949 37 38 59
-0.6915028095245361 1.225733995437622 6.892758369445801 72 90 102
-0.1545707732439041 -0.11362718790769577 7.003361225128174 87 88 90
0.037251066416502 1.3560422658920288 6.387460231781006 58 63 92
0.23847459256649017 0.4460083246231079 7.1956562995910645 31 37 49
-0.3570454716682434 0.350104957818985 7.233582019805908 82 100 104
-1.0613948106765747 1.4014225006103516 6.389403343200684 159 171 185
0.2772226333618164 1.0927271842956543 7.713170051574707 65 64 69
0.7971649169921875 -0.751574695110321 7.496295928955078 135 138 117
