ply
format ascii 1.0
element vertex 700
property float x
property float y
property float z
property uchar red
property uchar green
property uchar blue
end_header
0.04449520260095596 -0.43094727396965027 7.267022609710693 204 216 204
-0.17097730934619904 0.1781594604253769 7.238236904144287 147 173 172
-0.6075810194015503 1.6955959796905518 6.287057876586914 43 52 59
0.5154559016227722 -0.7394572496414185 7.814043998718262 113 87 86
-0.2844071686267853 0.23960712552070618 7.300770282745361 147 162 159
-0.04300081357359886 0.07003141939640045 7.17268180847168 130 147 137
0.39047491550445557 0.20015904307365417 7.29959774017334 128 151 165
-1.0740443468093872 1.5170810222625732 6.40716028213501 72 79 121
-1.2572931051254272 1.7045754194259644 6.512882232666016 94 83 126
0.5588786005973816 -0.9017302989959717 7.794727802276611 192 183 174
-0.03315106779336929 1.7949005365371704 6.111239433288574 89 81 118
-0.13708919286727905 -0.07954561710357666 7.188188076019287 157 174 166
-0.17320016026496887 0.312345027923584 7.297867774963379 49 58 53
-0.2098243534564972 1.1010971069335938 6.491724967956543 184 219 225
-0.06472796201705933 0.01627200096845627 7.169508457183838 134 148 133
0.3191365897655487 -0.42207974195480347 7.322450637817383 220 237 221
-0.6294547319412231 1.4955090284347534 6.307930946350098 150 174 178
-0.38618481159210205 -0.19534148275852203 7.31270694732666 178 163 158
-0.7264890670776367 1.492000699043274 6.316619873046875 117 100 116
-0.11402403563261032 0.0393192358314991 7.18516206741333 162 172 171
0.7040797472000122 -0.5976765155792236 7.779853820800781 121 117 118
0.0011433357140049338 -0.24715298414230347 7.186772346496582 194 209 202
0.27678582072257996 -0.3224608898162842 7.2911458015441895 211 229 217
0.1029621884226799 0.28169694542884827 7.2349934577941895 127 149 147
-1.1650937795639038 1.522569179534912 6.456768035888672 47 64 120
-1.0359363555908203 1.3648386001586914 6.829611778259277 17 20 25
-0.1777118742465973 0.32739752531051636 7.3036980628967285 117 110 104
0.13990408182144165 0.3315922021865845 7.277487754821777 119 138 144
0.40185797214508057 0.04656650125980377 7.255457401275635 66 66 76
-1.1255583763122559 1.711524486541748 6.473986625671387 92 91 125
-0.38901305198669434 0.22943410277366638 7.353245735168457 103 115 113
-0.21886542439460754 -0.20572492480278015 7.237784385681152 176 170 158
0.6842604875564575 0.47748738527297974 7.847621917724609 72 61 77
-0.9411565065383911 1.4448975324630737 6.545004844665527 43 49 49
-1.0233210325241089 1.4427769184112549 6.564266204833984 39 41 40
-0.03364952281117439 0.8274769186973572 7.875831127166748 25 26 30
-0.023150887340307236 -0.18605053424835205 7.1815667152404785 156 159 140
-0.0028315414674580097 0.14099684357643127 7.2065911293029785 154 174 165
-0.05225037783384323 -0.16068978607654572 7.17791223526001 170 176 176
-1.1570206880569458 1.3329720497131348 6.80767822265625 182 185 176
-0.40026620030403137 0.201110377907753 7.351888179779053 85 101 100
0.07559195905923843 0.7460811734199524 7.769129276275635 12 18 18
0.20054849982261658 1.4407539367675781 6.764945983886719 30 34 35
0.15767355263233185 -0.21204763650894165 7.187378406524658 199 210 194
0.17651212215423584 -0.2958185374736786 7.220751762390137 165 183 169
-1.1428583860397339 1.3791699409484863 6.795769214630127 17 15 18
-1.0151383876800537 1.2981681823730469 6.831651210784912 52 66 79
-0.03952331468462944 -0.774511992931366 7.867502212524414 23 25 20
-0.14988704025745392 -0.3626926839351654 7.264965534210205 209 224 219
0.02708638831973076 1.4679162502288818 6.575654983520508 43 45 40
-0.3054083585739136 0.24922731518745422 7.301692008972168 105 114 113
-0.8799445629119873 1.318976879119873 6.8585100173950195 117 122 116
0.24161703884601593 0.15987232327461243 7.224847316741943 137 170 179
0.5022739768028259 -0.3020337224006653 7.377104759216309 188 191 182
-1.0892709493637085 1.6708589792251587 6.461492538452148 132 158 185
0.1639038771390915 0.07519509643316269 7.199182987213135 162 183 184
-1.3706921339035034 1.6834251880645752 6.548630714416504 54 48 74
-0.759779155254364 1.7343136072158813 6.354753017425537 105 90 133
-0.014961965382099152 1.6650402545928955 6.07719087600708 115 135 159
-0.5962382555007935 -0.777158260345459 8.166982650756836 92 81 87
-0.2125024050474167 -0.37309712171554565 7.288778781890869 206 193 187
-0.3242757320404053 -0.02815660461783409 7.254289627075195 160 170 169
-0.8952566981315613 1.4432296752929688 6.52650260925293 46 52 52
0.5132396817207336 1.3560973405838013 7.948281288146973 135 137 113
-0.10718431323766708 -0.45495104789733887 7.31782865524292 210 214 200
0.10746690630912781 0.3311597406864166 7.2717108726501465 97 107 99
0.43676355481147766 -0.322091281414032 7.360587120056152 195 205 196
-0.47844353318214417 -0.2660660445690155 7.411285877227783 185 178 160
-0.9872431755065918 1.4575804471969604 6.537475109100342 157 157 183
-0.3592272996902466 -0.333943635225296 7.360124111175537 195 191 179
0.2338912934064865 -0.4660811126232147 7.343569755554199 219 239 230
0.2755429148674011 -0.03431207314133644 7.2050275802612305 143 154 137
0.4536789357662201 0.19125069677829742 7.329540252685547 132 160 172
0.12732258439064026 -0.3952859044075012 7.257266521453857 125 139 124
-1.4873508214950562 1.7055147886276245 6.586028575897217 26 23 50
0.03574864938855171 1.467301607131958 6.597133159637451 39 43 44
-0.022970879450440407 -0.06514786928892136 7.170835494995117 121 134 125
-0.06561080366373062 -0.1947212517261505 7.19972038269043 149 163 150
-0.31162846088409424 -0.33906257152557373 7.333041667938232 187 177 175
0.09826484322547913 -0.030844861641526222 7.155906677246094 134 145 129
-0.9415855407714844 -0.26918989419937134 8.318697929382324 97 87 95
0.5322427153587341 0.035084206610918045 7.345841407775879 123 126 119
-0.7081295847892761 -0.8584508895874023 8.220104217529297 99 86 95
0.04053043946623802 1.8250709772109985 6.127830505371094 86 79 123
0.0007036438910290599 0.30670782923698425 7.252257823944092 96 72 68
0.24472585320472717 0.1399444043636322 7.216775894165039 147 177 188
-0.2426968216896057 1.5409516096115112 6.1454973220825195 83 72 115
0.5589213371276855 -0.17537210881710052 7.3631463050842285 139 131 118
-0.5193199515342712 1.675858736038208 6.280404567718506 97 113 146
0.4262891411781311 0.062269337475299835 7.270675182342529 156 177 180
0.2250862419605255 0.31700775027275085 7.294145584106445 123 147 173
-0.13792799413204193 -0.031374894082546234 7.184333324432373 53 58 61
0.7152664661407471 -0.8278048038482666 7.730799198150635 127 123 111
-0.46957287192344666 1.4645147323608398 6.384286403656006 42 40 41
0.13237860798835754 1.3655107021331787 7.172373294830322 130 138 140
-1.0724973678588867 0.9138636589050293 7.547975063323975 158 127 81
-0.16657263040542603 -0.40004122257232666 7.293455600738525 221 218 203
-0.4281637370586395 -0.04761984571814537 7.322096347808838 81 82 87
0.3783297538757324 0.21435613930225372 7.302439212799072 52 63 83
-1.222776174545288 1.7103915214538574 6.512265205383301 98 90 129
-0.08076757192611694 -0.16166095435619354 7.184854030609131 184 199 194
-1.7537271976470947 1.5312144756317139 6.656497955322266 158 221 255
-0.3582268953323364 -0.2319917231798172 7.296387672424316 193 180 172
-0.1569279581308365 1.4758679866790771 6.446381092071533 61 48 58
-1.144669771194458 1.3157751560211182 6.835075378417969 49 57 59
-0.785534143447876 1.5361151695251465 6.3263139724731445 69 65 116
-0.9502829909324646 1.7203348875045776 6.417570114135742 102 94 135
-0.38309183716773987 -0.14928752183914185 7.2965407371521 175 185 174
-1.2187219858169556 1.2303177118301392 7.219483375549316 137 167 203
-0.3993471562862396 -0.04901912435889244 7.292879581451416 167 169 166
0.25029629468917847 -0.4324580430984497 7.321842193603516 214 227 210
-0.4290655553340912 -0.18741396069526672 7.339489459991455 144 132 120
-1.4294277429580688 1.469469666481018 6.534244537353516 50 57 111
-0.08918610215187073 1.2698761224746704 6.481984615325928 36 40 52
0.17934677004814148 -0.5727521777153015 7.443845272064209 165 177 175
-0.9762177467346191 1.312954068183899 6.842503547668457 47 51 63
-0.8055692911148071 1.2838778495788574 6.945319652557373 167 174 158
-0.021733272820711136 1.1917606592178345 6.5150861740112305 54 70 95
-0.05415713042020798 0.29200196266174316 7.2619829177856445 55 48 64
0.0066811880096793175 0.07643101364374161 7.171122074127197 156 175 169
-0.305407851934433 0.2492276132106781 7.301689147949219 105 114 113
-0.5816678404808044 1.0743892192840576 7.379342079162598 140 125 102
0.33675894141197205 -0.005753696896135807 7.223076820373535 125 135 137
-1.4698541164398193 1.470033884048462 6.550625801086426 41 43 84
0.025663530454039574 0.3100091814994812 7.26640510559082 86 71 66
-0.7824925184249878 1.4595820903778076 6.514397621154785 143 163 172
0.5668739676475525 0.6225958466529846 7.902530670166016 42 43 48
-0.3249575197696686 1.5808727741241455 6.196852207183838 39 45 61
-1.6206107139587402 1.6413707733154297 6.6335859298706055 135 159 161
-0.40658554434776306 0.17463266849517822 7.347794532775879 84 88 89
-0.31609874963760376 -0.1305830329656601 7.255951404571533 177 193 180
0.46861907839775085 -0.590125322341919 7.80087947845459 71 68 59
-0.20954133570194244 0.17723645269870758 7.244089603424072 140 156 143
-0.1379275918006897 -0.03137469291687012 7.184335708618164 53 58 61
-0.5972528457641602 1.5296692848205566 6.261088848114014 65 58 110
-0.024999914690852165 0.2713387608528137 7.238478660583496 124 136 134
-0.750211775302887 -0.7934225797653198 8.19909381866455 97 87 96
-1.0359430313110352 1.3648403882980347 6.829626560211182 17 20 25
-1.0002319812774658 -0.27163469791412354 8.313535690307617 99 94 101
0.09408870339393616 -0.31124231219291687 7.2036285400390625 205 217 207
-0.34930747747421265 -0.1831739991903305 7.283182144165039 176 184 169
-1.13204026222229 1.2302976846694946 7.184328556060791 156 179 213
-0.28632795810699463 1.660696029663086 6.206210613250732 99 116 123
0.2443833202123642 -0.25213661789894104 7.211216449737549 166 189 173
0.6780826449394226 -0.9107176065444946 7.726377487182617 202 203 189
-0.0934111475944519 1.294188141822815 6.4967498779296875 165 194 192
0.06483940035104752 0.294618159532547 7.25249719619751 72 77 83
0.21533669531345367 0.17727240920066833 7.2271199226379395 155 179 181
-1.091995120048523 1.4161505699157715 6.840103626251221 41 42 37
-0.42358115315437317 -0.10762845724821091 7.3175368309021 170 180 169
-0.23967552185058594 1.0842453241348267 6.506185531616211 51 63 105
-0.2530784606933594 0.22366765141487122 7.281262397766113 155 161 157
0.2979945242404938 1.355452060699463 7.315312385559082 169 182 173
-0.01658068597316742 1.2937757968902588 6.509690761566162 179 203 205
0.7733876705169678 -0.7643024921417236 7.7198567390441895 79 70 63
0.6369261145591736 -0.7800021767616272 7.763391494750977 126 111 114
-0.10843750089406967 0.27834397554397583 7.254237174987793 46 53 59
-0.07899679988622665 0.29549258947372437 7.265315532684326 70 59 63
-0.9367278814315796 -0.6057379245758057 8.276435852050781 107 92 99
-0.2022351622581482 0.42178183794021606 7.379538536071777 104 124 113
0.3633919656276703 0.03780130296945572 7.2473649978637695 147 165 165
-0.19812972843647003 1.0886356830596924 6.489789962768555 50 63 97
0.27211225032806396 1.4234682321548462 6.896914482116699 155 158 165
-0.309367299079895 -0.4464746415615082 7.4270429611206055 124 112 112
0.17933450639247894 1.3638781309127808 7.187489986419678 145 155 157
0.49570661783218384 -0.15059173107147217 7.320913314819336 69 78 73
-0.32386428117752075 -0.4266986846923828 7.401002407073975 197 180 164
-1.5265123844146729 1.540611743927002 6.596384048461914 104 134 172
0.16175039112567902 -0.2650053799152374 7.193358421325684 87 93 89
-1.2037748098373413 1.3764925003051758 6.71933650970459 193 198 192
0.3899059295654297 0.03383534029126167 7.236601829528809 153 168 173
-1.1397719383239746 1.1081169843673706 7.510416030883789 162 133 101
-0.9738714694976807 1.3663280010223389 6.828547477722168 20 30 29
0.5097050666809082 0.19352461397647858 7.377943515777588 39 56 86
-0.8220086693763733 1.4849026203155518 6.351808547973633 111 95 105
-0.9494515657424927 -0.046484652906656265 8.3183012008667 107 103 102
-0.9236192107200623 1.308919906616211 6.844028949737549 144 155 139
-1.1542510986328125 1.2768296003341675 6.859188079833984 169 171 168
0.053844086825847626 1.779591679573059 6.081353187561035 84 83 115
-0.13545921444892883 -0.15753886103630066 7.202934741973877 169 182 175
-0.20818988978862762 0.45999249815940857 7.428376197814941 40 65 70
-0.9841310381889343 1.7179207801818848 6.423810958862305 94 87 120
-0.34068360924720764 0.011455253697931767 7.270096778869629 52 66 67
0.4281128942966461 0.35303106904029846 7.4209418296813965 31 52 83
-0.04255170747637749 -0.3756450414657593 7.252856731414795 219 236 228
0.2730830907821655 0.4024273753166199 7.358090877532959 82 102 109
0.11056435853242874 1.4437106847763062 6.706560134887695 163 173 165
-0.2650652825832367 -0.40930312871932983 7.349038600921631 197 176 171
-0.09747464209794998 1.2437894344329834 6.480184555053711 166 190 200
-0.02531260810792446 -0.21693529188632965 7.185154914855957 204 210 198
-0.0966295599937439 1.09721040725708 6.514954566955566 66 102 124
-0.9313576817512512 1.5076754093170166 6.38580322265625 74 63 105
0.455730676651001 1.10517156124115 7.952571392059326 82 81 77
-0.21256901323795319 1.4978160858154297 6.349322319030762 132 119 126
-0.807603657245636 0.9247216582298279 7.5973591804504395 83 89 79
-0.7496446967124939 1.612768530845642 6.337815761566162 102 127 131
0.36201542615890503 0.34605228900909424 7.368497371673584 48 65 75
-0.266374796628952 0.050215158611536026 7.230876445770264 108 128 126
-0.2673952579498291 -0.1635618507862091 7.247134685516357 149 140 131
0.24526402354240417 0.36925873160362244 7.336331367492676 41 54 71
-0.06216283515095711 0.2343231737613678 7.225555419921875 141 161 162
-0.11910507082939148 1.1288871765136719 6.481485366821289 112 136 170
-0.04011205583810806 -0.1339448094367981 7.171294689178467 165 167 153
-0.15081648528575897 -0.19346792995929718 7.195489883422852 188 189 173
0.4930565357208252 0.055966392159461975 7.3252410888671875 46 54 77
-0.7276373505592346 1.4709548950195312 6.5135345458984375 150 169 184
-0.304174542427063 -0.04757886379957199 7.247549057006836 165 175 176
0.507232129573822 -0.32944902777671814 7.427408695220947 183 185 171
0.6188463568687439 -0.16725878417491913 7.4560394287109375 58 63 66
-0.9508278965950012 0.9548662900924683 7.553908824920654 151 132 100
-0.4573907256126404 -0.29037562012672424 7.408287525177002 89 82 90
-0.1541161984205246 1.0884205102920532 6.499502182006836 27 45 91
-0.2696784436702728 -0.11362683027982712 7.2463812828063965 166 176 175
-0.15210559964179993 1.3908607959747314 6.420838832855225 17 28 46
-0.2238052487373352 1.0307804346084595 7.511468887329102 70 91 96
0.06360021978616714 -0.5272480845451355 7.3670854568481445 226 243 235
-0.5973876714706421 1.645195484161377 6.294621467590332 86 104 126
-0.9812597632408142 -0.8331864476203918 8.2880220413208 104 95 90
-0.04767224192619324 1.0350337028503418 7.81983757019043 45 56 48
-0.7706078290939331 0.5924664735794067 8.311527252197266 105 88 98
-0.7923750877380371 1.4926592111587524 6.356994152069092 119 98 103
-0.974406361579895 0.9513787627220154 7.553256988525391 153 131 94
0.4738982021808624 0.26923808455467224 7.390842914581299 47 59 81
0.2419545203447342 0.0035748544614762068 7.197957992553711 157 182 176
-0.17345526814460754 -0.30198678374290466 7.24881649017334 98 98 90
-0.03316323459148407 1.4507372379302979 6.535705089569092 8 7 12
-0.20928294956684113 1.1739606857299805 6.44091796875 55 79 123
0.010168630629777908 1.7116162776947021 6.125699043273926 112 143 164
0.5207844376564026 1.2903962135314941 7.907512187957764 166 162 135
0.48015302419662476 0.3153831958770752 7.447427749633789 38 47 76
-0.20135685801506042 -0.3997006118297577 7.30659294128418 208 201 191
-0.0003457347338553518 0.19670240581035614 7.196887969970703 108 126 110
-0.01119979191571474 -0.2343040108680725 7.190822601318359 67 75 77
-0.266116201877594 -0.022586414590477943 7.231526851654053 143 156 147
0.6245019435882568 -0.7977386116981506 7.780182838439941 81 71 79
-0.8074464201927185 -0.6203183531761169 8.240618705749512 84 74 75
-0.17345544695854187 -0.30198654532432556 7.248820781707764 98 98 90
-1.6866846084594727 1.6870808601379395 6.646324634552002 148 158 150
-0.4002508223056793 -0.22757811844348907 7.339064598083496 173 151 137
-1.0621399879455566 1.433534860610962 6.5768561363220215 67 65 89
-0.46751677989959717 1.7462849617004395 6.242062568664551 86 78 101
0.5104368925094604 -0.08987484127283096 7.314734935760498 72 86 87
-0.3493075966835022 -0.1831740140914917 7.2831830978393555 176 184 169
-0.291812539100647 1.4870377779006958 6.422116279602051 87 85 98
-0.10428187251091003 -0.47761815786361694 7.347779273986816 110 105 111
-0.19542139768600464 0.4836622178554535 7.444860458374023 98 110 98
-0.48645591735839844 0.21825329959392548 7.441277503967285 91 106 113
-0.9385783076286316 1.3131775856018066 6.836673259735107 182 183 175
-1.5136257410049438 1.4514920711517334 6.536482334136963 95 102 121
0.50911545753479 -0.1641969382762909 7.315952777862549 171 177 167
-0.4486607611179352 -0.13137179613113403 7.3424577713012695 177 189 185
-1.1446641683578491 1.3157697916030884 6.835052490234375 49 57 59
-0.8928660750389099 1.2840782403945923 6.885404586791992 177 182 159
-0.2885793447494507 1.4530607461929321 6.445827960968018 13 19 33
-0.41123026609420776 0.21697823703289032 7.363100051879883 149 164 159
-0.2998592257499695 1.5123580694198608 6.17797327041626 102 87 110
-1.2311017513275146 1.5214753150939941 6.485478401184082 63 75 99
-0.02394137531518936 -0.47220945358276367 7.315425872802734 225 242 234
-0.9582031965255737 1.4796971082687378 6.400420188903809 119 105 128
-1.249176025390625 1.4201655387878418 6.7156524658203125 61 58 79
-0.2572249472141266 1.5298198461532593 6.137603282928467 99 85 120
0.8263099789619446 -0.7446721196174622 7.70188045501709 137 142 112
-0.9243940114974976 -0.741840124130249 8.273282051086426 107 97 105
0.23479464650154114 1.4173747301101685 6.816692352294922 197 213 210
-0.03315470367670059 1.4509196281433105 6.535680294036865 8 7 12
-0.12187358736991882 1.5453555583953857 6.088926315307617 87 69 121
-0.7393230199813843 1.3299349546432495 6.974465370178223 16 21 25
-1.001542568206787 1.2294989824295044 7.239163398742676 227 240 231
-0.8054405450820923 0.5851356387138367 8.312884330749512 70 59 73
-1.1530146598815918 1.4690583944320679 6.459391117095947 122 108 131
-0.07770072668790817 -0.5270375609397888 7.381540775299072 209 229 220
0.4300512969493866 0.01431297417730093 7.266651153564453 81 95 108
0.07153592258691788 -0.1499951183795929 7.17176628112793 108 108 98
-0.6097717881202698 1.491994023323059 6.311697483062744 156 163 171
0.1975698471069336 0.3912099301815033 7.332019329071045 88 89 83
0.26364389061927795 0.7797040343284607 7.708345413208008 78 88 89
-0.004502844996750355 -0.16761215031147003 7.1771931648254395 62 62 52
-0.11808964610099792 0.3206811547279358 7.282352447509766 113 113 103
-0.33781367540359497 0.36350131034851074 7.397532939910889 125 136 119
-1.1500362157821655 1.2926658391952515 6.852913856506348 41 55 58
-0.49265941977500916 0.23408183455467224 7.452847957611084 152 164 160
-0.860244631767273 1.2809678316116333 6.898702144622803 174 178 155
0.29437026381492615 0.025813840329647064 7.199259281158447 127 145 149
-0.024642132222652435 1.6841880083084106 6.128012180328369 110 144 172
-0.824790894985199 1.3572769165039062 6.878966808319092 29 31 28
-1.6433707475662231 1.527669072151184 6.645951747894287 55 58 93
0.2832057774066925 -0.07671161741018295 7.21179723739624 152 165 155
0.4253138303756714 0.31209465861320496 7.394601821899414 94 115 146
-0.9159067273139954 1.5251137018203735 6.366208076477051 82 77 135
-0.22982116043567657 0.14752079546451569 7.253302097320557 103 120 112
0.6895752549171448 0.7762890458106995 7.877194404602051 88 68 79
-0.09272988140583038 1.4021819829940796 6.522549152374268 16 21 40
-0.9168014526367188 1.3022241592407227 6.861878395080566 41 49 52
-0.12370786815881729 0.7703545689582825 7.839778423309326 74 76 71
0.3087185025215149 -0.21383227407932281 7.2275519371032715 175 189 172
0.4255388379096985 0.33923059701919556 7.415700912475586 43 57 83
0.2870720326900482 -0.4150584638118744 7.311163425445557 236 244 233
-0.5654969811439514 1.7461215257644653 6.2684760093688965 70 64 112
-0.7616931200027466 1.2841386795043945 6.981120586395264 167 171 156
-0.7987377047538757 1.271893858909607 6.95260763168335 120 123 114
0.5044443011283875 -0.767994225025177 7.823549747467041 125 111 110
-1.1582984924316406 1.2843194007873535 6.833424091339111 173 186 177
-0.07056431472301483 1.2925167083740234 6.484586238861084 164 191 198
0.56134432554245 -0.1463855803012848 7.342221260070801 148 142 118
-0.8183778524398804 0.894320011138916 7.56259298324585 63 70 62
-0.28498098254203796 -0.19116152822971344 7.239867210388184 165 154 148
-0.2801530659198761 0.4584394097328186 7.4514899253845215 112 122 111
-0.12591011822223663 -0.5406776070594788 7.415961742401123 138 149 135
-1.2028542757034302 1.3880971670150757 6.714230060577393 72 76 77
-1.1127891540527344 0.9001811742782593 7.625985622406006 206 187 154
0.05520195886492729 1.471375823020935 6.610257625579834 34 34 42
-0.4077216386795044 0.012393493205308914 7.308506488800049 130 128 116
0.6118398308753967 -0.006224369630217552 7.423653602600098 134 149 152
-0.772478461265564 1.2930858135223389 6.959759712219238 175 186 172
0.0070906272158026695 -0.20334100723266602 7.178265571594238 188 191 184
0.39719998836517334 0.3614793121814728 7.410274982452393 85 115 141
0.5154555439949036 -0.7394567728042603 7.814039707183838 113 87 86
-0.286358118057251 0.33510157465934753 7.366337299346924 74 89 82
0.7550711631774902 -0.27309632301330566 7.7610368728637695 84 74 73
-0.6301474571228027 1.5057300329208374 6.269541263580322 141 140 180
0.04653002694249153 0.27849724888801575 7.247370719909668 55 75 74
0.3265961706638336 -0.36334407329559326 7.297667503356934 184 205 198
-0.22103814780712128 1.4757936000823975 6.437625408172607 51 51 59
-0.14450329542160034 -0.5567792057991028 7.448525428771973 218 235 225
-0.6100451350212097 1.5408855676651 6.255996227264404 71 69 108
0.25358375906944275 1.0370866060256958 8.02084732055664 73 68 74
0.5454441905021667 -0.11462962627410889 7.349447727203369 129 137 124
0.5273237824440002 0.17558735609054565 7.364515781402588 124 144 171
-0.8297449946403503 1.7480369806289673 6.370551586151123 56 50 110
0.4541219472885132 0.05151290073990822 7.295864105224609 153 172 168
-0.12813428044319153 1.0880882740020752 6.504258155822754 36 44 65
-0.4605300724506378 1.4939130544662476 6.321404457092285 127 123 146
-1.1958411931991577 1.4692288637161255 6.445388317108154 159 154 176
0.24809186160564423 -0.40924203395843506 7.293416500091553 221 225 210
-0.7642191052436829 0.5591892004013062 8.292572975158691 71 66 88
0.15876658260822296 -0.4771678149700165 7.3245849609375 193 216 210
0.7568971514701843 -0.894533634185791 7.6632490158081055 118 123 119
0.6188467741012573 -0.16725894808769226 7.456034183502197 58 63 66
0.2599200904369354 0.1567968875169754 7.2247419357299805 116 147 152
0.016538545489311218 1.4780120849609375 6.5315423011779785 106 110 119
0.036690544337034225 -0.1325802505016327 7.17732048034668 122 108 95
0.1601603627204895 0.707889974117279 7.685467720031738 47 51 62
-0.5694539546966553 -0.1262109875679016 7.472939491271973 83 81 95
-1.6899460554122925 1.5393949747085571 6.651339530944824 106 131 161
-0.4195924997329712 -0.13190823793411255 7.306926250457764 163 177 162
-1.680780053138733 1.6274701356887817 6.653314590454102 70 96 121
-0.7477757930755615 -0.5596746206283569 8.236651420593262 77 72 78
0.24141280353069305 0.43570420145988464 7.400906085968018 43 57 70
-0.3669961988925934 0.0736260861158371 7.3053460121154785 109 97 83
-0.3630636930465698 0.19404828548431396 7.334926128387451 55 64 73
0.04353032261133194 -0.29851529002189636 7.221691608428955 176 193 175
-0.07606993615627289 1.1881699562072754 6.492929458618164 157 182 187
-1.1297310590744019 1.4499880075454712 6.575066089630127 166 166 176
-0.643673837184906 1.44989013671875 6.487835884094238 123 143 144
0.185184046626091 1.4598119258880615 6.75655460357666 73 74 78
-0.3145708441734314 1.5926499366760254 6.184503078460693 101 125 161
-0.61624675989151 -0.7184487581253052 8.165264129638672 70 76 76
-1.9151054620742798 1.8436148166656494 5.695680141448975 195 226 254
-0.115253746509552 1.6744126081466675 6.148366928100586 113 148 178
-0.3364696502685547 0.9818572998046875 7.593933582305908 153 164 160
-0.9132643342018127 1.3599286079406738 6.839855670928955 23 23 21
-1.0737210512161255 1.4490550756454468 6.569253444671631 167 164 183
-0.7406607866287231 1.2593663930892944 7.05795955657959 160 166 154
0.10296136140823364 0.28169605135917664 7.234989643096924 127 149 147
-0.6220461130142212 1.520938754081726 6.255920886993408 53 51 91
0.0036802240647375584 1.4661089181900024 6.54044246673584 52 52 54
0.39879852533340454 1.05096435546875 7.942934989929199 59 49 57
0.39444634318351746 0.06788264214992523 7.24685001373291 151 171 172
0.2723918557167053 -0.18280798196792603 7.201593399047852 168 180 156
-0.0065553332678973675 0.43966060876846313 7.3395891189575195 51 42 45
-1.082165241241455 1.243160605430603 7.157223701477051 233 245 243
0.00724403141066432 0.09832725673913956 7.184198379516602 124 144 135
-0.4507255256175995 0.1432250440120697 7.371557235717773 78 84 80
-0.9117081761360168 0.26949572563171387 8.331257820129395 80 78 83
-0.17422878742218018 -0.3381175696849823 7.257448673248291 86 97 99
-0.14339403808116913 -0.12650953233242035 7.187020301818848 161 174 167
0.18893484771251678 1.4805209636688232 6.6297125816345215 153 127 140
-0.16507232189178467 0.4639112055301666 7.402132511138916 97 103 91
-0.014971203170716763 1.6650410890579224 6.077186584472656 115 135 159
-1.0315301418304443 1.716524362564087 6.435147285461426 91 88 135
-0.18298208713531494 -0.21110433340072632 7.225656509399414 174 164 165
0.6126894950866699 -0.7668361663818359 7.79258394241333 75 66 67
-0.15501324832439423 -0.2177228033542633 7.207576274871826 191 191 181
-1.5136359930038452 1.4514966011047363 6.536506175994873 95 102 121
-0.22982117533683777 0.14752019941806793 7.253291606903076 103 120 112
0.22452405095100403 -0.5090026259422302 7.382286548614502 153 172 170
0.2322394847869873 0.3501429259777069 7.3179612159729 114 141 150
-0.19814573228359222 -0.4390009343624115 7.336723327636719 211 185 170
-0.605769157409668 1.5140495300292969 6.255275726318359 133 128 168
-0.16342009603977203 0.21662580966949463 7.246732234954834 118 128 130
0.17934735119342804 -0.5727526545524597 7.443848609924316 165 177 175
-0.42623141407966614 0.14744506776332855 7.347843170166016 74 77 66
-0.10292042791843414 -0.534497082233429 7.395839214324951 230 247 237
0.7855690717697144 -0.01318192295730114 7.77170991897583 93 80 87
-0.17124398052692413 -0.5549612641334534 7.461097717285156 223 235 221
-1.102199912071228 1.4350769519805908 6.601108551025391 65 54 62
0.39632904529571533 1.195773959159851 7.977170467376709 73 60 69
-0.27886635065078735 1.402510404586792 6.393768787384033 22 27 56
-0.0801425501704216 1.6857050657272339 6.163039207458496 109 151 176
-0.505395770072937 1.4554598331451416 6.5837554931640625 102 96 122
0.0864211842417717 -0.1915631890296936 7.169764041900635 171 179 166
-0.22827965021133423 0.18639202415943146 7.25374174118042 145 168 162
-0.018886923789978027 0.05310487747192383 7.1822967529296875 132 149 133
-0.32361429929733276 -0.8190217614173889 8.081170082092285 104 98 100
-0.7732202410697937 1.6422220468521118 6.359809875488281 117 124 153
0.6757954359054565 0.44591912627220154 7.831940650939941 44 32 52
-0.6540497541427612 -0.6288626790046692 8.182024002075195 121 110 116
-0.08470676839351654 0.02908894792199135 7.171742916107178 125 142 134
0.7944118976593018 -0.646144688129425 7.736741065979004 118 101 111
-0.25128671526908875 1.092374324798584 6.507287979125977 135 160 182
-0.8086898922920227 0.956457793712616 7.5912628173828125 76 78 73
0.6200277805328369 -0.6223370432853699 7.796430587768555 121 105 105
-1.2187244892120361 1.2303193807601929 7.2194929122924805 137 167 203
-0.280556857585907 1.2346891164779663 6.426775932312012 107 137 187
0.1705275923013687 1.466840147972107 6.72356653213501 142 156 159
-0.31639501452445984 -0.23340286314487457 7.275920391082764 180 168 156
-0.5694578886032104 -0.12621228396892548 7.472966194152832 83 81 95
0.6703774929046631 -0.7398093938827515 7.765961647033691 114 109 113
-0.47443875670433044 -0.20232827961444855 7.3874688148498535 173 156 140
0.3433437645435333 1.5097105503082275 6.70692777633667 63 66 75
-0.014230805449187756 0.4175499379634857 7.317080497741699 48 48 38
-0.921299934387207 1.3295451402664185 6.8433637619018555 93 98 94
-0.5801916122436523 1.500059962272644 6.277436256408691 132 122 156
-0.16696815192699432 -0.5388166904449463 7.421974182128906 126 146 145
-0.7897047996520996 0.5377050638198853 8.334248542785645 99 88 102
0.19851619005203247 -0.8278014659881592 7.899163722991943 125 106 108
-0.04123220965266228 1.65708589553833 6.132147312164307 93 108 131
0.43872204422950745 -0.41381752490997314 7.3940863609313965 192 208 198
-0.41280654072761536 -0.1845373809337616 7.321616172790527 173 166 158
-0.035857755690813065 0.4353516101837158 7.317808628082275 92 76 76
0.34975665807724 0.42321091890335083 7.428664684295654 28 39 59
-0.5973917841911316 1.6452016830444336 6.294640064239502 86 104 126
-0.13181883096694946 0.7472255825996399 7.888629913330078 58 66 68
-1.69868803024292 1.6156812906265259 6.6604485511779785 131 162 182
0.01909792050719261 -0.10245177149772644 7.159155368804932 144 137 118
-1.228256106376648 1.4314831495285034 6.685131549835205 161 178 188
0.058503590524196625 0.5934953093528748 7.500098705291748 35 35 37
0.5164287090301514 -0.10344255715608597 7.316613674163818 141 155 140
0.08604523539543152 0.06656263023614883 7.176799297332764 107 128 113
0.2618156373500824 -0.01713537983596325 7.181583404541016 179 197 185
-1.1099170446395874 1.301571249961853 6.832403182983398 95 97 92
-1.0588420629501343 1.7115750312805176 6.441105842590332 91 86 108
-0.28123199939727783 -0.5192543864250183 7.4783549308776855 129 129 127
-0.8588441014289856 -0.7470057606697083 8.244075775146484 108 102 102
-0.6021928191184998 1.4743722677230835 6.318053722381592 45 38 45
0.13571488857269287 0.01147508155554533 7.1652913093566895 127 140 131
0.27384844422340393 1.4965155124664307 6.656407356262207 45 37 58
-0.5129207372665405 0.22448550164699554 7.468921661376953 93 106 112
-0.8247828483581543 1.3572674989700317 6.878926753997803 29 31 28
0.06064335256814957 1.4870240688323975 6.542490482330322 91 78 95
-0.8520957231521606 1.4462038278579712 6.531325817108154 65 64 72
-0.7032976150512695 -0.6939679384231567 8.182662963867188 87 77 78
0.5125757455825806 -0.1375582218170166 7.313666820526123 165 177 153
-1.0737205743789673 1.3009648323059082 6.838034629821777 182 189 182
-0.24313603341579437 1.488876223564148 6.390670299530029 79 71 86
-0.21217571198940277 1.5226343870162964 6.151613235473633 109 102 118
0.43872204422950745 -0.41381675004959106 7.394087314605713 192 208 198
-0.8704008460044861 1.5394543409347534 6.366147994995117 78 81 136
-0.03832818567752838 0.26479026675224304 7.235678195953369 68 92 94
-0.7285784482955933 1.590637445449829 6.340810298919678 74 86 86
0.7082271575927734 0.47004058957099915 7.835050582885742 55 45 54
-0.26315954327583313 1.471370816230774 6.407862186431885 36 36 34
-1.1500487327575684 1.2926751375198364 6.852959632873535 41 55 58
0.10267520695924759 -0.5052308440208435 7.3378095626831055 226 239 229
-0.7921675443649292 -0.5344231724739075 8.228742599487305 118 106 118
0.22115586698055267 1.465774655342102 6.755253314971924 146 152 166
-0.6940081715583801 1.5164490938186646 6.289322376251221 40 53 97
-0.5666642189025879 -0.7603058815002441 8.13580322265625 119 104 107
-0.139174684882164 0.25715842843055725 7.262442111968994 121 141 140
-0.42928704619407654 -0.26395151019096375 7.373574256896973 194 181 165
-0.7616891860961914 1.2841380834579468 6.981115341186523 167 171 156
0.11707253754138947 0.030978433787822723 7.161672592163086 128 149 144
0.09627372771501541 0.17554742097854614 7.205765724182129 111 137 134
-0.2196018248796463 1.0471700429916382 7.5008111000061035 84 99 96
-0.7101938128471375 1.506316900253296 6.3090410232543945 189 182 189
0.44861695170402527 1.35946786403656 7.972163200378418 60 56 73
-0.10399424284696579 -0.2150210589170456 7.196578502655029 112 117 97
0.22452469170093536 -0.5090017318725586 7.382284164428711 153 172 170
0.039773330092430115 -0.3129180073738098 7.207579135894775 207 218 210
-0.4260669946670532 0.35950300097465515 7.4996657371521 118 139 140
-0.39324724674224854 -0.24599815905094147 7.3279547691345215 177 147 139
-0.1786189079284668 0.456924170255661 7.420791149139404 66 83 77
-0.13203154504299164 0.9066664576530457 7.929789066314697 24 35 29
-0.06062867119908333 1.6820411682128906 6.13830041885376 118 151 186
-0.5354847311973572 0.047136351466178894 7.423318862915039 63 55 78
0.6136035323143005 0.08790016174316406 7.451374053955078 122 132 144
0.3997623324394226 -0.4589000642299652 7.40816068649292 218 235 219
-0.17674124240875244 1.5239083766937256 6.185928821563721 123 124 142
-0.18042805790901184 0.761568009853363 7.900152206420898 60 62 59
0.5971205234527588 1.0906673669815063 7.906323432922363 89 78 86
-0.8459143042564392 0.8766724467277527 7.575840473175049 82 87 80
0.07414712011814117 -0.5705714821815491 7.412299156188965 231 245 228
-1.5454115867614746 1.689767837524414 6.6065216064453125 67 77 69
-1.4852758646011353 1.4839311838150024 6.54978609085083 19 34 73
-0.5817720293998718 1.6719958782196045 6.267547130584717 42 63 90
-1.277651071548462 1.3996931314468384 6.7562103271484375 150 156 156
-0.23266324400901794 1.0993354320526123 6.499278545379639 207 236 254
-0.03832831233739853 0.26479029655456543 7.2356791496276855 68 92 94
0.18506625294685364 0.1845882385969162 7.217337608337402 117 145 149
-0.735144317150116 1.4879415035247803 6.359760761260986 143 136 154
-1.6575983762741089 1.4572638273239136 6.591468811035156 80 105 127
-0.296991229057312 1.40497887134552 6.416451454162598 24 28 55
-0.8003158569335938 0.8713369369506836 7.556921482086182 153 152 132
-0.6722275018692017 1.7575312852859497 6.33929967880249 91 86 116
0.39716836810112 -0.6775226593017578 7.859676837921143 88 78 89
-0.02492929808795452 -0.530847430229187 7.374203681945801 227 243 233
-0.15604268014431 0.4708693027496338 7.40544319152832 50 61 55
-0.15501244366168976 -0.21772289276123047 7.2075724601745605 191 191 181
0.5276826024055481 -0.12446331977844238 7.339871883392334 118 123 119
-0.059657592326402664 -0.5604598522186279 7.413036823272705 161 179 179
-0.18177998065948486 0.11823222041130066 7.2174224853515625 153 171 171
0.1644582450389862 -0.5941170454025269 7.463191032409668 154 165 151
0.5193083882331848 0.21264395117759705 7.381070613861084 121 153 176
-0.37515541911125183 -0.3816622495651245 7.403693675994873 210 200 190
0.3147791028022766 -0.5112907290458679 7.421579837799072 203 220 202
-0.26846715807914734 1.7652053833007812 6.184292316436768 78 81 116
-0.6555070281028748 1.4682750701904297 6.4774675369262695 152 167 188
-0.7804226279258728 -0.7929412722587585 8.203021049499512 91 82 85
-1.6986969709396362 1.6156866550445557 6.6604719161987305 131 162 182
-0.43544286489486694 0.018388058990240097 7.324649333953857 117 113 110
0.08397895097732544 1.4462320804595947 6.671473979949951 148 155 148
-0.4115757942199707 -0.7454332113265991 8.117289543151855 81 82 87
0.6651464104652405 1.3684570789337158 7.894411563873291 168 159 130
-0.687588095664978 1.4406358003616333 6.509812831878662 51 52 56
0.5154558420181274 -0.7394573092460632 7.81404447555542 113 87 86
-0.44043999910354614 0.8368349671363831 8.215435028076172 83 71 73
-1.0290077924728394 1.240038275718689 7.15352725982666 230 242 238
-0.06542449444532394 1.6920509338378906 6.14542818069458 110 128 148
-0.11485939472913742 1.4657901525497437 6.446990013122559 111 100 108
0.015478999353945255 -0.4528757929801941 7.279877185821533 202 213 205
0.30148759484291077 1.3351798057556152 7.346560001373291 187 204 194
0.3601193428039551 -0.5100916028022766 7.441089630126953 207 221 206
-0.6875884532928467 1.4406366348266602 6.509815692901611 51 52 56
0.16883786022663116 -0.8479892611503601 7.921972274780273 120 104 107
0.24814634025096893 1.667304277420044 6.36810302734375 191 195 204
-0.2677235007286072 1.3758726119995117 6.388521671295166 25 28 47
-0.4455317258834839 0.7727809548377991 8.164777755737305 93 74 80
-1.63270103931427 1.4084612131118774 6.7548508644104 142 144 143
0.10206584632396698 -0.617699384689331 7.51127290725708 176 176 168
-0.43467018008232117 0.16888035833835602 7.35968542098999 135 150 155
-0.7714546918869019 -0.5999261736869812 8.219106674194336 120 110 109
-1.1652710437774658 1.714781403541565 6.50644588470459 98 94 111
0.4288339614868164 -0.6937512159347534 7.844083786010742 118 112 114
-0.8644665479660034 1.3058565855026245 6.8829216957092285 37 38 59
-0.8287081718444824 -0.7299761176109314 8.257464408874512 75 70 74
-0.7175469994544983 1.265135645866394 7.094985008239746 72 90 102
-0.15999233722686768 -0.12173434346914291 7.199325084686279 87 88 90
0.03706236183643341 1.3969465494155884 6.556931018829346 58 63 92
0.2462904155254364 0.4580404758453369 7.408914566040039 31 37 49
-0.3704812824726105 0.3586304485797882 7.449670314788818 82 100 104
-1.0992077589035034 1.444390892982483 6.564371585845947 159 171 185
0.286634236574173 1.1320979595184326 7.969470500946045 65 64 69
0.7928661704063416 -0.11411695182323456 7.814937114715576 105 90 93
0.4025249779224396 1.2141799926757812 7.959532737731934 63 45 45
-0.18201982975006104 1.0580612421035767 6.4823503494262695 110 148 195
0.19229236245155334 -0.8068849444389343 7.879672527313232 91 82 77
-0.8270139694213867 1.431833267211914 6.75527286529541 141 128 146
-0.7897082567214966 0.5377122163772583 8.334269523620605 99 88 102
0.3131852149963379 -0.5354614853858948 7.459403038024902 216 227 210
0.6774773597717285 -0.47102564573287964 7.781810760498047 111 94 102
-0.014231281355023384 0.4175482988357544 7.317077159881592 48 48 38
0.4052719473838806 -0.1819860339164734 7.270895957946777 183 199 186
-0.5311390161514282 0.21465367078781128 7.479413032531738 147 165 177
0.25048112869262695 -0.028887806460261345 7.1708984375 135 156 147
-0.3484102785587311 1.4682188034057617 6.412518501281738 47 46 42
-0.12717680633068085 1.0686545372009277 6.511799335479736 22 43 90
0.14660616219043732 -0.025050926953554153 7.168830394744873 153 168 161
-0.773552417755127 1.6323871612548828 6.366691589355469 136 170 197
0.61884605884552 -0.16725896298885345 7.456038475036621 58 63 66
-0.7650561332702637 -0.6872681975364685 8.216768264770508 93 91 92
-0.1232442781329155 1.3382760286331177 6.450404167175293 62 87 127
-0.37515732645988464 -0.3816625773906708 7.403707981109619 210 200 190
-0.8754436373710632 0.8926776647567749 7.604816436767578 154 151 136
-0.29055818915367126 1.5994255542755127 6.194190979003906 103 129 144
-1.1824873685836792 1.4108027219772339 6.696808338165283 110 120 132
0.22942617535591125 0.3884672522544861 7.34257698059082 106 120 120
-0.7984068989753723 1.7297064065933228 6.369234561920166 84 85 116
0.49152305722236633 -0.6460762619972229 7.826673984527588 108 94 93
0.5427933931350708 0.47580069303512573 7.76694917678833 21 27 43
0.2736951410770416 -0.004485262092202902 7.203415870666504 146 162 161
0.19215136766433716 -0.09363370388746262 7.182682037353516 71 82 86
-0.27531594038009644 0.03353460133075714 7.225128650665283 111 129 129
-0.8941116333007812 1.2916010618209839 6.870179653167725 74 98 98
0.35038480162620544 0.11582058668136597 7.255232810974121 132 151 155
0.4346640706062317 1.3093479871749878 7.9372100830078125 53 44 47
0.05644579604268074 -0.5831829309463501 7.434017181396484 151 163 163
-0.7477788329124451 -0.5596734285354614 8.236663818359375 77 72 78
0.6047399640083313 -0.15110652148723602 7.418977737426758 132 125 106
-1.0479644536972046 1.2965431213378906 6.839688301086426 140 140 138
0.732931911945343 -0.6978505849838257 7.77169132232666 109 97 99
-0.6139082312583923 1.4532525539398193 6.465928077697754 43 49 49
0.8342199921607971 -0.8318866491317749 7.7030720710754395 123 126 105
-0.42570382356643677 -0.7813513875007629 8.098833084106445 111 99 103
-0.01695975847542286 0.34290599822998047 7.267995834350586 73 63 62
-0.2516363263130188 1.2056368589401245 6.4215288162231445 91 122 168
-0.7652177810668945 -0.6881977915763855 8.217630386352539 93 91 92
-0.4877052307128906 0.2538154125213623 7.46649694442749 148 166 180
-0.05965633690357208 -0.5604605674743652 7.413036823272705 161 179 179
-0.2520315945148468 1.3188323974609375 6.380503177642822 70 99 139
-0.3133923411369324 1.2768564224243164 6.436394214630127 101 138 182
0.28256428241729736 0.046932462602853775 7.229000568389893 118 130 130
-0.1140320748090744 1.0812621116638184 7.399751663208008 150 154 127
-0.781804084777832 1.7338005304336548 6.345572471618652 54 51 96
-0.3573395013809204 0.4844328463077545 7.548772811889648 67 82 89
-0.6306730508804321 1.5433375835418701 6.261446475982666 58 63 103
0.2124876081943512 0.36296960711479187 7.322484493255615 82 103 124
-0.40385201573371887 1.4673935174942017 6.422540664672852 94 93 111
-0.8789786100387573 1.1363072395324707 7.63184928894043 54 49 56
-0.5393162369728088 1.6335701942443848 6.281185150146484 44 72 93
-0.5841243863105774 0.04499717056751251 7.483903408050537 135 125 126
-0.25932496786117554 1.3368035554885864 6.39750337600708 41 76 106
-0.15552113950252533 0.32938718795776367 7.2967023849487305 70 69 67
-0.22728823125362396 0.11847157031297684 7.2361555099487305 138 144 140
-0.5138530135154724 -0.7070976495742798 8.120521545410156 72 69 78
0.2838743031024933 1.4647157192230225 6.782955169677734 137 140 149
0.2604421377182007 1.0727202892303467 7.9805755615234375 74 64 73
-0.20985062420368195 0.5313316583633423 7.488858699798584 96 99 92
0.700721263885498 -0.5762435793876648 7.770394325256348 94 85 90
-0.19619739055633545 0.4181700050830841 7.370941638946533 109 114 107
0.6828407049179077 -0.4406904876232147 7.7717156410217285 85 80 76
-1.1828452348709106 1.3207104206085205 6.805859565734863 134 139 135
-0.1220414862036705 -0.07579968869686127 7.177278518676758 119 135 132
-0.691016674041748 1.4189047813415527 6.913697242736816 123 126 145
-0.6072842478752136 1.7366074323654175 6.285676002502441 78 70 117
0.044449687004089355 -0.8380612730979919 7.991363048553467 107 95 97
-0.6132575273513794 1.6866718530654907 6.295738220214844 96 111 116
-0.10716407001018524 -0.30042368173599243 7.201998710632324 191 202 186
-0.15183165669441223 -0.790250837802887 7.852874755859375 108 109 113
-1.4953267574310303 1.4463318586349487 6.549968242645264 162 189 218
-0.4239608943462372 0.07557932287454605 7.3215765953063965 130 121 122
-0.24076277017593384 1.1361249685287476 6.478016376495361 152 182 216
0.5097055435180664 0.1935248225927353 7.377949237823486 39 56 86
-0.25257983803749084 -0.39688917994499207 7.349593162536621 211 211 213
0.2032693773508072 -0.5211455821990967 7.386493682861328 213 230 211
-1.0630041360855103 1.3642303943634033 6.835726737976074 29 32 25
-0.22121639549732208 0.04833030700683594 7.207697868347168 158 175 167
-0.43219444155693054 0.05614623799920082 7.329448699951172 125 116 109
-0.4775025546550751 0.3299434781074524 7.498318672180176 130 147 165
-0.11525476723909378 1.674413800239563 6.148374080657959 113 148 178
-0.46626192331314087 0.24352620542049408 7.427729606628418 122 141 155
-0.451774001121521 0.0926111489534378 7.348303318023682 119 104 97
-0.19249121844768524 0.18455326557159424 7.244256973266602 117 137 135
-0.07790087163448334 0.3144111633300781 7.260859489440918 117 110 104
0.3232307732105255 1.039681315422058 7.984385013580322 79 68 84
0.09387655556201935 1.5639307498931885 6.073626518249512 111 87 111
-0.6139047741889954 1.4532464742660522 6.465906620025635 43 49 49
0.024292200803756714 1.4385871887207031 6.555849552154541 19 23 32
-0.910285472869873 -0.5893073081970215 8.257047653198242 71 68 77
-0.08743008971214294 -0.4086199998855591 7.264279365539551 196 212 199
0.15931954979896545 0.4653700590133667 7.393659591674805 69 72 77
0.21114581823349 -0.30987387895584106 7.230149745941162 174 194 185
0.7421897053718567 -0.5632867217063904 7.75471830368042 124 109 114
-0.38686037063598633 1.752536654472351 6.221371173858643 85 80 103
-0.4851725697517395 1.4845994710922241 6.332902431488037 158 171 188
0.9214509725570679 -0.9025087356567383 7.8246893882751465 188 192 169
-0.25069063901901245 0.4546408951282501 7.43226432800293 108 118 110
0.6231788396835327 -0.8542928695678711 7.695901393890381 152 148 119
-0.8355231881141663 0.9928780794143677 7.62218713760376 50 57 50
0.2021292895078659 1.4861400127410889 6.634807109832764 92 74 90
-0.4354427456855774 0.018388057127594948 7.324649810791016 117 113 110
-0.20775943994522095 0.2646579146385193 7.278451442718506 117 138 139
-0.4408552348613739 1.4872983694076538 6.398409843444824 147 156 171
-0.10425935685634613 1.0640783309936523 6.5111589431762695 32 50 88
-0.25748956203460693 1.4949990510940552 6.343705177307129 112 104 115
0.6396543383598328 -0.7613800764083862 7.786665439605713 82 71 75
-0.9007253050804138 -0.4392749071121216 8.277984619140625 68 66 80
-1.6807929277420044 1.6274720430374146 6.6533355712890625 70 96 121
0.1923995018005371 1.3744049072265625 7.089201927185059 174 189 186
-0.5507200360298157 0.7508382797241211 8.23587703704834 90 72 62
0.32431700825691223 0.1297662854194641 7.230595111846924 125 153 167
-1.1912250518798828 1.404636263847351 6.737743854522705 30 35 31
-0.5138523578643799 -0.7070973515510559 8.12051773071289 72 69 78
-0.7648590803146362 1.43405282497406 6.749372482299805 148 142 152
-0.10946602374315262 0.337268203496933 7.294504642486572 70 65 69
-0.6132614612579346 1.4414631128311157 6.482508182525635 176 174 179
0.7552856802940369 -0.8834056854248047 7.695490837097168 143 143 115
-0.2911968231201172 0.07201801985502243 7.254991054534912 82 101 95
-0.4013531506061554 0.6581196188926697 8.015546798706055 40 40 42
-1.2581384181976318 1.385966181755066 6.747186183929443 47 43 44
0.1636344939470291 -0.040869880467653275 7.170258522033691 161 173 163
-0.2633028030395508 0.46450838446617126 7.447006702423096 66 82 81
-0.05498037487268448 0.5367464423179626 7.443309307098389 71 71 61
-0.8163199424743652 0.6258097887039185 8.317119598388672 89 83 95
0.6746023893356323 0.8333796262741089 7.859551429748535 78 73 80
-0.6211922764778137 0.7381994128227234 8.279206275939941 72 64 62
-0.13252520561218262 1.5301481485366821 6.2512946128845215 126 121 143
0.11103489249944687 0.3961147665977478 7.316694259643555 40 34 48
-0.5809721350669861 1.7053816318511963 6.295791149139404 83 122 139
0.12616996467113495 1.5072721242904663 6.434904098510742 105 93 113
0.6020928025245667 -0.3018658459186554 7.4861578941345215 158 142 127
0.44303300976753235 1.24260675907135 7.937219619750977 49 46 41
-0.3271641135215759 -0.008489781059324741 7.258454322814941 159 174 169
0.5615657567977905 -0.6924994587898254 7.791893482208252 90 85 89
0.7204674482345581 -0.6128783226013184 7.754813194274902 92 85 92
0.517788290977478 -0.7054222822189331 7.822666168212891 106 85 90
-0.8441741466522217 0.5527627468109131 8.327812194824219 90 74 84
-0.9738726615905762 1.3663285970687866 6.828542709350586 20 30 29
0.4696064293384552 -0.35126084089279175 7.376676559448242 173 183 174
-0.32335013151168823 0.03905874490737915 7.264742851257324 68 76 78
0.5054521560668945 0.2581581771373749 7.403894424438477 102 109 125
