ply
format ascii 1.0
element vertex 704
property float x
property float y
property float z
property uchar red
property uchar green
property uchar blue
end_header
-0.2216097116470337 1.2619380950927734 10.635364532470703 93 91 79
-0.26815593242645264 2.1901605129241943 8.171270370483398 135 115 127
-0.33031341433525085 2.1216471195220947 8.456068992614746 77 86 69
-0.6627798676490784 1.8974907398223877 8.24434757232666 56 75 115
-0.7291862964630127 2.4779045581817627 7.817987442016602 120 151 179
-3.053750514984131 2.239109516143799 8.91550350189209 124 161 180
0.6576287746429443 -0.3315314054489136 9.519590377807617 70 74 75
-0.10500902682542801 1.9756535291671753 9.417562484741211 148 156 159
-1.9939212799072266 1.8431992530822754 9.065117835998535 133 138 134
0.6920037865638733 -0.13054533302783966 9.56051254272461 123 123 121
0.3049657642841339 0.03406769782304764 9.426225662231445 142 172 183
-0.5216671228408813 1.8770673274993896 8.306288719177246 68 85 115
-0.18268723785877228 -0.37820035219192505 9.363181114196777 101 102 88
-1.0480765104293823 2.196122407913208 7.908286094665527 169 165 179
0.022701837122440338 0.25617095828056335 9.497871398925781 101 129 143
1.141229510307312 -1.4511232376098633 10.160015106201172 110 86 86
0.3053893744945526 -0.7533612847328186 9.490726470947266 218 231 214
-1.8014010190963745 1.8438154458999634 9.065279960632324 180 184 170
-0.8865156769752502 -0.4102150499820709 9.776992797851562 113 103 101
-0.8086272478103638 1.9977450370788574 8.212955474853516 42 74 95
-0.3947399854660034 -0.22697503864765167 9.444965362548828 78 88 87
-0.4058787226676941 -0.8600010275840759 9.62110424041748 224 221 214
-0.4844878911972046 0.20107285678386688 9.621227264404297 70 76 76
0.44419533014297485 -0.7870445847511292 9.560638427734375 209 230 225
-0.20658862590789795 -0.9957849979400635 9.671313285827637 110 124 125
-0.05267559736967087 1.3459628820419312 10.456066131591797 28 33 29
0.8308267593383789 -0.4260331690311432 9.667402267456055 139 127 115
-0.5190479159355164 1.541890263557434 8.376943588256836 68 96 120
-0.015206861309707165 2.1045119762420654 8.73086929321289 35 42 48
0.336893767118454 0.4727407991886139 9.70393180847168 65 92 111
-1.9217439889907837 1.8145400285720825 9.064513206481934 57 64 70
0.8330408334732056 -0.018052510917186737 9.70565414428711 44 45 76
-0.688115119934082 2.5254786014556885 7.848752975463867 97 119 117
0.17665064334869385 -0.6972060799598694 9.439087867736816 171 184 177
0.19597046077251434 0.3577084541320801 9.581138610839844 115 139 151
-0.41023963689804077 -0.5289134383201599 9.4713134765625 192 192 194
-0.2116878479719162 -0.5600045323371887 9.419255256652832 192 204 202
-0.5555391907691956 -0.4632309675216675 9.526612281799316 155 152 143
1.0965626239776611 -1.5357093811035156 10.084015846252441 109 112 93
-0.6574826240539551 -0.22279544174671173 9.59019947052002 73 88 83
0.37698835134506226 0.04662417620420456 9.483345031738281 110 137 148
0.31818196177482605 -0.8620539903640747 9.5557279586792 238 249 245
-0.7082837224006653 -0.5233440399169922 9.645292282104492 176 187 171
-1.761969804763794 1.9189589023590088 9.060538291931152 22 23 25
-0.4526154100894928 -0.5567097067832947 9.474824905395508 172 163 156
0.7304626107215881 -1.5982301235198975 10.361888885498047 123 114 117
-1.598109245300293 1.845090389251709 9.13437271118164 66 67 71
0.8638597130775452 -0.3555075228214264 9.691543579101562 89 83 69
-2.1893651485443115 2.0979743003845215 8.462457656860352 181 173 196
-0.25366052985191345 2.1381068229675293 8.539257049560547 57 67 68
-2.962270736694336 2.150665044784546 8.887868881225586 67 67 77
-0.17849358916282654 -0.8183814883232117 9.515846252441406 214 233 229
-3.0981621742248535 2.263331651687622 8.954069137573242 119 164 193
0.646497368812561 0.30904656648635864 9.725235939025879 95 102 131
-0.6040835976600647 -0.44018206000328064 9.564018249511719 184 194 186
0.39526131749153137 -1.0564947128295898 9.801595687866211 221 232 216
-0.019713010638952255 -0.7856614589691162 9.475043296813965 192 208 197
-0.5671411156654358 1.4957246780395508 8.385825157165527 27 34 63
-1.6157829761505127 1.9207955598831177 9.117938995361328 33 28 32
-1.0410537719726562 2.117180347442627 8.291095733642578 98 98 108
0.07515168190002441 -0.8679181933403015 9.524495124816895 221 237 227
-0.2872401177883148 1.2226201295852661 10.62826919555664 38 35 42
0.8934070467948914 1.8201946020126343 10.34457778930664 126 125 105
-0.06864573806524277 -1.3953639268875122 10.392730712890625 75 77 76
0.3988468647003174 2.5550341606140137 9.148427963256836 27 50 118
-0.5162534713745117 0.02825748920440674 9.538378715515137 127 141 141
-1.960836410522461 1.7827872037887573 9.095081329345703 184 192 179
0.7777708172798157 0.3487215042114258 9.88625717163086 95 122 139
-0.5522593259811401 1.4063547849655151 10.023295402526855 77 91 94
-0.46170681715011597 -0.8073723912239075 9.610946655273438 188 180 167
-0.43118816614151 -0.32824230194091797 9.456170082092285 174 186 174
-0.0022254749201238155 -0.15622451901435852 9.370250701904297 123 137 138
-0.18975280225276947 0.10260910540819168 9.459542274475098 98 117 113
-1.0822179317474365 2.1930415630340576 7.9340596199035645 174 171 202
-0.12521851062774658 0.2125900238752365 9.52294635772705 99 118 112
-0.2320789247751236 0.270183265209198 9.57148265838623 117 108 93
-1.8808151483535767 2.1229286193847656 8.310225486755371 179 165 198
0.7423314452171326 -0.1383431851863861 9.620760917663574 112 129 123
-2.89563250541687 1.944584846496582 9.083198547363281 155 165 164
-1.2147785425186157 2.413374185562134 8.05322551727295 109 139 175
-0.15102608501911163 2.131439208984375 8.636351585388184 93 99 95
1.2126612663269043 -0.4476831257343292 10.19013786315918 76 62 62
-0.7921285629272461 -0.3114667236804962 9.671640396118164 162 174 160
-0.27334898710250854 -0.40292349457740784 9.409490585327148 87 92 86
0.872285783290863 0.1124376505613327 9.821613311767578 42 50 71
0.4878416359424591 -0.9784674644470215 9.733015060424805 214 225 219
-0.6282719969749451 2.252267360687256 7.731605529785156 152 139 169
-0.3423364460468292 -1.0337443351745605 9.789253234863281 205 191 191
0.06311165541410446 2.099499464035034 8.75796890258789 125 144 151
-0.36524173617362976 0.2945435345172882 9.598769187927246 119 110 105
-0.529719352722168 -0.4840828776359558 9.501317024230957 125 107 103
-0.17783519625663757 -0.08951578289270401 9.407645225524902 151 174 166
-0.7614984512329102 -0.47112712264060974 9.683347702026367 152 160 149
0.8722830414772034 0.11243578046560287 9.82149887084961 42 50 71
-0.7126781940460205 2.4075896739959717 7.84660005569458 117 132 135
-0.5980433225631714 -0.1452048420906067 9.548006057739258 112 124 124
-1.770588994026184 1.8677343130111694 9.054788589477539 113 120 113
0.607797384262085 -0.45072197914123535 9.535124778747559 166 175 174
-0.8873539566993713 2.5995562076568604 7.887233257293701 80 77 104
0.6823335886001587 0.09259585291147232 9.6108980178833 104 135 155
0.1450032740831375 -0.3674570918083191 9.36187744140625 163 177 177
-0.6440816521644592 -0.5040516257286072 9.592663764953613 65 65 67
-0.6142879128456116 2.4943487644195557 7.816960334777832 106 120 131
0.45076999068260193 0.12617534399032593 9.528767585754395 123 146 162
0.871121883392334 -0.1633787751197815 9.720312118530273 45 46 67
-0.30216866731643677 -0.47396159172058105 9.42301082611084 193 205 203
-0.1718582957983017 -0.9707511067390442 9.638660430908203 232 245 238
-0.7624412775039673 -0.18003934621810913 9.648499488830566 150 139 133
-0.39865854382514954 0.19134150445461273 9.541520118713379 117 137 138
0.23060740530490875 2.1095480918884277 8.84781265258789 80 84 95
-1.625949501991272 2.175065517425537 8.186293601989746 62 50 96
-0.31383928656578064 -0.45034241676330566 9.435503959655762 88 88 88
-1.9000643491744995 1.6072882413864136 10.225340843200684 49 47 48
0.1650424301624298 0.3778318166732788 9.599690437316895 92 116 128
0.6066145896911621 0.3296058475971222 9.707587242126465 27 45 49
-1.9580010175704956 1.9191651344299316 9.064916610717773 21 20 18
-0.9578773379325867 2.3369603157043457 7.954143524169922 99 126 156
-0.5162566900253296 0.02825777977705002 9.538411140441895 127 141 141
-0.7004223465919495 1.472568392753601 8.370691299438477 111 149 185
-0.3514109253883362 1.7975592613220215 8.375293731689453 46 81 113
-1.987990140914917 2.0254709720611572 8.653037071228027 147 157 169
0.3388970196247101 -0.25841814279556274 9.407630920410156 127 135 124
-0.0747852548956871 -0.9027467370033264 9.576240539550781 198 220 208
0.7558743953704834 -0.6826997399330139 9.709969520568848 149 144 124
0.053184498101472855 -0.8384314179420471 9.501483917236328 121 131 120
0.3830823004245758 -0.8413522243499756 9.581686019897461 216 235 229
0.7065438032150269 -0.135884627699852 9.584328651428223 121 117 106
0.3053380846977234 -0.8984410762786865 9.57258129119873 219 236 228
-0.430727481842041 2.107168197631836 8.390578269958496 9 9 11
-0.6411625146865845 2.0146284103393555 8.271300315856934 19 24 53
-2.6450014114379883 2.2283449172973633 8.691636085510254 129 156 186
0.6464973092079163 0.3090459704399109 9.7252197265625 95 102 131
-1.6717948913574219 1.8318063020706177 9.106736183166504 49 52 57
-1.5525414943695068 2.1687448024749756 8.1860990524292 176 171 175
-0.5391338467597961 0.0748094916343689 9.569887161254883 133 159 158
-1.9217240810394287 1.8145252466201782 9.064427375793457 57 64 70
-1.4751880168914795 1.8931092023849487 9.210782051086426 31 30 35
-1.4046186208724976 2.2279255390167236 8.074090957641602 78 69 116
-0.07967622578144073 0.26096805930137634 9.50386905670166 61 62 66
-0.6975101828575134 -0.5704023838043213 9.640772819519043 178 166 154
0.07926119118928909 -0.9548685550689697 9.602506637573242 193 204 190
-1.2886042594909668 2.4874184131622314 8.086813926696777 105 131 156
-0.05495724081993103 -0.4156223237514496 9.370503425598145 78 82 65
-1.8823736906051636 2.151921033859253 8.320068359375 78 66 112
-2.5844924449920654 2.0604779720306396 8.666386604309082 152 148 165
0.17580647766590118 1.9442908763885498 9.610492706298828 67 104 86
-2.1179027557373047 1.8283149003982544 9.047704696655273 40 50 49
0.7676317095756531 -0.7001457214355469 9.71945571899414 41 45 46
-0.09947889298200607 -0.21044735610485077 9.34897518157959 118 133 128
-2.116732120513916 1.8276031017303467 9.043987274169922 40 50 49
-0.21914899349212646 -0.4289717376232147 9.414619445800781 156 147 138
0.46772709488868713 0.25747689604759216 9.585554122924805 93 117 143
0.5510538220405579 0.36363786458969116 9.718596458435059 108 132 170
0.1389082670211792 -1.1032702922821045 9.752557754516602 220 234 221
-0.38768458366394043 -0.8022636771202087 9.600936889648438 206 221 218
0.2525074779987335 -0.8550824522972107 9.532218933105469 220 233 216
-1.6615678071975708 1.7940407991409302 9.13546085357666 180 179 158
0.7262105345726013 1.8718286752700806 10.49271297454834 162 157 127
0.03527773916721344 -1.016859769821167 9.646333694458008 235 248 228
0.16286280751228333 -0.07082177698612213 9.391138076782227 37 49 65
-2.958693742752075 2.3427112102508545 8.874390602111816 110 133 167
0.6520870327949524 0.22404786944389343 9.689977645874023 95 108 117
0.7264078259468079 1.8094191551208496 10.446589469909668 61 56 50
-0.759822428226471 0.10494411736726761 9.749917984008789 150 165 170
-1.6637580394744873 2.2028753757476807 8.190824508666992 70 68 118
-0.15433095395565033 1.7281625270843506 9.648030281066895 113 158 135
-1.131635308265686 2.1788747310638428 8.022930145263672 130 126 141
-0.7930120825767517 2.157869815826416 8.198079109191895 78 75 84
0.6023248434066772 -0.9294480085372925 9.76225757598877 210 212 199
0.7093209028244019 -0.41552290320396423 9.573160171508789 173 182 165
-2.4586291313171387 2.0741939544677734 8.585647583007812 172 180 216
-0.11304138600826263 -1.1994255781173706 9.91234016418457 218 231 214
0.6733956933021545 -0.31241127848625183 9.541420936584473 178 176 163
-0.7163358330726624 -0.6002875566482544 9.647469520568848 190 175 168
-0.6634851694107056 -0.4875886142253876 9.6085205078125 189 192 181
0.2172686904668808 2.3481335639953613 8.555798530578613 81 99 147
-0.32706084847450256 -0.4724377393722534 9.427055358886719 169 185 184
-0.1088794693350792 0.2342361956834793 9.491931915283203 68 68 68
-1.4269027709960938 2.2964136600494385 8.11480712890625 29 46 56
-0.711701512336731 2.524688720703125 7.819729804992676 109 128 126
0.638146698474884 -0.4298507571220398 9.527311325073242 59 69 61
0.2788882851600647 -0.7682011127471924 9.470239639282227 188 197 176
-0.010044924914836884 0.03323093056678772 9.410215377807617 126 140 140
-2.189537763595581 1.796266794204712 9.091129302978516 187 191 177
-0.40372681617736816 2.516385793685913 7.711474418640137 87 102 109
-0.4756067097187042 0.05487459525465965 9.549103736877441 156 171 164
0.6519072651863098 1.9881248474121094 10.543007850646973 49 47 48
-1.8603285551071167 2.3456685543060303 8.36943244934082 104 114 126
0.8766898512840271 -0.6958491206169128 9.83930778503418 84 64 65
0.5655372738838196 -0.6080107688903809 9.546563148498535 159 173 158
0.7235053181648254 -0.12390800565481186 9.591501235961914 50 56 68
0.7009971737861633 0.31413349509239197 9.772613525390625 89 108 151
-0.1589343249797821 -1.0632691383361816 9.719778060913086 228 245 239
0.10120502859354019 2.546128511428833 8.474854469299316 65 63 128
0.7423333525657654 -0.1383441537618637 9.620918273925781 112 129 123
1.074231505393982 -1.1054507493972778 10.217138290405273 89 72 80
-0.00986124575138092 1.6790409088134766 9.740208625793457 95 107 103
-1.6295056343078613 2.127573251724243 8.207484245300293 108 94 107
0.6713681221008301 0.1519484966993332 9.643668174743652 122 149 168
-0.09937682747840881 -1.5179904699325562 10.315608978271484 42 52 53
-3.0719826221466064 2.366222620010376 8.950483322143555 99 101 113
-2.1335368156433105 1.7706153392791748 9.123919486999512 168 175 168
-0.31025436520576477 2.1347925662994385 8.472379684448242 33 37 38
-0.01320346537977457 0.4440610706806183 9.59723949432373 67 69 66
0.46275192499160767 0.1884845793247223 9.562889099121094 94 122 143
-0.038698483258485794 -0.5145966410636902 9.394719123840332 170 178 167
-0.5699759125709534 1.5236564874649048 8.353976249694824 29 43 70
0.7535866498947144 -1.6098487377166748 10.326234817504883 112 104 115
-0.5246802568435669 2.022805690765381 8.369379043579102 19 23 34
-1.6172795295715332 2.3397586345672607 8.258825302124023 111 127 140
0.37698742747306824 0.046624667942523956 9.483390808105469 110 137 148
-1.4580687284469604 2.399953603744507 8.141271591186523 20 37 57
0.6283940672874451 0.09871666878461838 9.610334396362305 132 158 185
-0.3872317671775818 2.2367076873779297 7.852766990661621 123 118 138
0.3941943645477295 -0.794654130935669 9.53331184387207 214 237 227
-2.15000319480896 2.1059181690216064 8.452666282653809 175 168 184
-0.15746045112609863 -0.5070532560348511 9.3862886428833 63 61 64
0.5089115500450134 -0.09250272810459137 9.483000755310059 147 171 181
-0.24550902843475342 0.20973636209964752 9.5200834274292 62 77 84
1.2025641202926636 -1.2837358713150024 10.127656936645508 63 54 59
0.3041386306285858 1.0478428602218628 10.265983581542969 87 93 89
0.9039821028709412 -0.9554125070571899 10.297240257263184 71 59 61
-1.2147692441940308 2.4133615493774414 8.05317497253418 109 139 175
-0.12449939548969269 2.1123900413513184 8.680241584777832 160 175 170
-0.5288084745407104 -0.9331675171852112 9.794072151184082 203 188 185
-1.5546417236328125 1.7828419208526611 9.219902038574219 121 122 108
-0.1872975081205368 -0.5865886807441711 9.420769691467285 73 74 76
-1.7164639234542847 1.797837495803833 9.123764991760254 176 184 163
0.14199644327163696 0.4213828444480896 9.621949195861816 82 82 84
-0.06390806287527084 -0.4477976858615875 9.375391960144043 103 103 91
-1.4007571935653687 2.47133731842041 8.116588592529297 52 59 69
-0.5388514399528503 0.011899883858859539 9.547041893005371 102 118 115
-1.6691147089004517 2.080491781234741 8.57962417602539 53 52 58
-2.6938817501068115 2.274991989135742 8.758000373840332 120 150 184
0.24678562581539154 -0.8159400224685669 9.510998725891113 210 227 219
0.6284205317497253 -0.9179482460021973 9.765433311462402 104 121 113
0.23061321675777435 2.1915338039398193 8.73353099822998 134 135 127
-0.39137959480285645 1.7556045055389404 8.366910934448242 166 190 190
-0.502601683139801 1.5207968950271606 8.396862983703613 23 35 75
-0.6812087893486023 1.337396264076233 10.13881778717041 143 158 163
0.07675652951002121 2.029794931411743 9.106143951416016 189 195 193
0.23851992189884186 2.3100547790527344 8.5966796875 117 132 127
-0.4032759964466095 -0.4212372303009033 9.456521987915039 166 174 176
0.6423128843307495 0.3836667537689209 9.787834167480469 41 45 80
-0.17447429895401 -0.5058086514472961 9.410383224487305 78 76 77
-0.12724359333515167 0.005864073056727648 9.409372329711914 120 136 125
-1.3470914363861084 2.155944585800171 8.07160472869873 135 126 155
0.1759781539440155 2.1888427734375 8.639172554016113 61 46 65
-0.4996700882911682 0.4780556857585907 9.810434341430664 118 139 132
0.6467501521110535 -0.1249958872795105 9.526958465576172 128 119 114
0.03741008788347244 -0.7100582718849182 9.432984352111816 176 186 162
-0.2860904633998871 -0.8721421360969543 9.579957008361816 190 204 191
1.0536514520645142 -1.4698163270950317 10.187259674072266 113 97 97
-0.18975137174129486 0.10260868817567825 9.459522247314453 98 117 113
-0.0062503330409526825 1.6674729585647583 9.79188060760498 143 156 149
0.23387493193149567 -0.2264092117547989 9.372912406921387 174 197 187
0.05278446152806282 1.6456302404403687 9.894521713256836 178 198 186
-1.455604076385498 1.874733805656433 9.218474388122559 20 17 24
-1.2850688695907593 1.8438600301742554 9.311631202697754 81 92 114
-0.42916783690452576 0.39869630336761475 9.7083101272583 43 54 50
-0.327795147895813 2.1333038806915283 8.424188613891602 44 45 50
-0.2418937087059021 -0.4277293086051941 9.404216766357422 168 170 159
0.9542423486709595 -1.5429456233978271 10.254314422607422 51 44 52
-0.1103287786245346 2.3831074237823486 7.993435382843018 67 78 124
0.012358653359115124 -1.0305936336517334 9.638829231262207 151 155 154
0.2306121587753296 2.191540241241455 8.733560562133789 134 135 127
0.3252708315849304 -0.6819890737533569 9.463764190673828 194 210 200
-0.16952869296073914 2.1041386127471924 8.651580810546875 153 167 152
-0.332478404045105 -1.1104668378829956 9.849610328674316 227 240 233
0.2787477374076843 -0.9022564888000488 9.58013916015625 116 126 128
-0.32075268030166626 -0.1694561094045639 9.432001113891602 129 139 140
0.48806995153427124 -0.24821609258651733 9.464607238769531 143 151 153
-0.9046757817268372 -0.4866875112056732 9.787490844726562 168 152 136
0.12020519375801086 -0.9683215618133545 9.59842300415039 197 207 206
-0.4370160698890686 -0.39250248670578003 9.4359130859375 176 192 182
0.36304789781570435 -0.28348469734191895 9.408592224121094 158 169 165
0.07380659133195877 -1.1980559825897217 9.907364845275879 181 181 169
-1.1243455410003662 2.1492323875427246 8.17189884185791 120 118 139
-1.3690992593765259 1.7953076362609863 9.409939765930176 183 195 217
-0.8159865140914917 -1.5431283712387085 11.046175003051758 124 111 118
-2.029573678970337 2.043200731277466 8.645323753356934 168 177 182
0.2561332583427429 -0.20555558800697327 9.392561912536621 137 157 158
0.6935214996337891 0.5495943427085876 10.059860229492188 32 40 61
-0.2518557608127594 -0.12493767589330673 9.413999557495117 153 169 159
0.2856467068195343 0.32653120160102844 9.59471321105957 91 117 132
-0.06220122054219246 2.169207811355591 8.522293090820312 138 121 129
-0.4756360948085785 0.26082706451416016 9.672586441040039 62 63 58
0.030923962593078613 2.114165782928467 8.743220329284668 67 71 82
-0.37325766682624817 2.1393139362335205 8.422491073608398 57 55 56
-0.8457549214363098 -0.2048209011554718 9.721528053283691 123 115 112
0.1810709536075592 -1.1211802959442139 9.790823936462402 149 155 151
-1.5978519916534424 1.8759135007858276 9.091949462890625 50 53 58
-0.8090961575508118 -0.5033980011940002 9.696863174438477 166 154 140
0.27888843417167664 -0.7682008147239685 9.470234870910645 188 197 176
0.5186542868614197 -0.9293540120124817 9.696688652038574 228 241 232
-0.4449189007282257 -0.4389001429080963 9.472174644470215 176 168 165
-2.5092179775238037 2.0542542934417725 8.678174018859863 138 126 148
-0.3746432960033417 1.9538980722427368 8.347963333129883 60 94 121
-0.6494213342666626 -0.30282077193260193 9.56821060180664 155 174 168
-1.7218446731567383 1.8085230588912964 9.100432395935059 88 105 113
-0.4037259519100189 2.5163838863372803 7.7114667892456055 87 102 109
0.3538762927055359 -0.6631607413291931 9.45946979522705 65 70 73
-0.22514240443706512 -0.21288685500621796 9.378153800964355 124 138 125
-0.17881999909877777 1.2714389562606812 10.629014015197754 90 88 75
-0.9214259386062622 2.1565136909484863 8.237279891967773 141 132 159
-1.7422418594360352 1.630614995956421 10.22403621673584 51 57 55
-2.2914676666259766 2.0149424076080322 8.861137390136719 164 176 190
0.3688367009162903 -1.185400128364563 9.997424125671387 163 170 162
0.5481917858123779 -0.48516416549682617 9.4960355758667 152 164 160
-0.8621572852134705 -1.4724899530410767 11.106042861938477 115 106 107
-2.7113444805145264 2.0237488746643066 8.735897064208984 43 51 64
0.08080270886421204 2.110273599624634 8.758219718933105 64 74 86
0.18598559498786926 2.0445754528045654 9.106817245483398 166 174 176
0.1945544332265854 0.41915762424468994 9.622234344482422 103 117 120
-0.8548989295959473 -1.5096908807754517 11.059600830078125 90 81 84
-1.5086886882781982 2.1658642292022705 8.137543678283691 153 168 197
-1.1888607740402222 2.1431386470794678 8.16993522644043 153 169 185
0.21927110850811005 0.38829103112220764 9.60393238067627 44 53 60
-0.13772892951965332 -0.9162811040878296 9.568950653076172 238 250 246
-0.1589336395263672 -1.0632684230804443 9.719767570495605 228 245 239
0.26070165634155273 2.225747585296631 8.72877311706543 142 145 126
-0.5292943716049194 2.4842731952667236 7.775101661682129 108 142 167
0.15318582952022552 2.1700544357299805 8.66209602355957 59 50 53
-0.4844251573085785 0.45175719261169434 9.772689819335938 101 111 102
0.10668632388114929 2.219304323196411 8.5446138381958 32 40 51
-2.733877658843994 2.058889865875244 8.681530952453613 130 156 181
-1.6726757287979126 2.142054796218872 8.277853012084961 122 96 105
-0.22389960289001465 0.22039493918418884 9.51048469543457 126 138 136
-0.11148906499147415 -0.35006511211395264 9.354019165039062 123 119 110
-0.08474737405776978 -0.0668976902961731 9.391419410705566 152 176 178
1.2485791444778442 -1.2195312976837158 10.118831634521484 66 52 49
0.17665424942970276 -0.6972007751464844 9.438990592956543 171 184 177
0.23030266165733337 2.336916923522949 8.601004600524902 44 61 91
-1.8316330909729004 1.863589882850647 9.047403335571289 28 38 39
1.2332183122634888 1.5692328214645386 10.710399627685547 135 131 120
-1.7044713497161865 1.8558623790740967 9.089052200317383 128 127 123
-0.4145720303058624 1.593870997428894 8.405252456665039 133 163 199
1.2352476119995117 -0.9258174300193787 10.184347152709961 99 78 87
0.5424431562423706 0.4613507390022278 9.810211181640625 61 68 94
-1.5120772123336792 1.8179285526275635 9.222434997558594 170 174 157
0.26376545429229736 2.245020866394043 8.705840110778809 70 68 89
0.762419581413269 -0.1933010220527649 9.609554290771484 107 129 126
0.33591118454933167 0.010846881195902824 9.442652702331543 118 143 150
-0.6215156316757202 0.15589958429336548 9.658915519714355 151 162 146
-0.10998331755399704 -0.48905128240585327 9.391352653503418 136 114 103
-0.6340234875679016 -0.3785872161388397 9.555188179016113 141 158 148
-0.3483906090259552 2.2177510261535645 8.056429862976074 114 102 122
0.38784047961235046 -1.0144764184951782 9.705267906188965 200 212 198
-1.959556221961975 1.72049880027771 9.583552360534668 228 244 244
0.4713456630706787 -1.2798854112625122 10.473052024841309 112 102 111
-0.17933395504951477 -1.021176815032959 9.675135612487793 242 253 249
-2.222844362258911 1.890974521636963 8.995455741882324 90 100 91
-1.6252882480621338 2.0890920162200928 8.53104305267334 140 159 174
-1.1255658864974976 2.1884281635284424 7.969542980194092 164 153 185
-0.09136377274990082 0.31245753169059753 9.568187713623047 87 71 72
-0.08201977610588074 2.355776786804199 8.048194885253906 55 57 82
-1.7310657501220703 2.0643391609191895 8.56712532043457 55 56 58
0.6755331754684448 2.0969290733337402 9.693109512329102 130 123 107
0.27793827652931213 -0.5388955473899841 9.416805267333984 195 212 204
-0.28306663036346436 2.2108144760131836 8.073570251464844 131 115 141
0.21305525302886963 -0.8014563322067261 9.490079879760742 182 194 174
-0.38474979996681213 -0.9524450898170471 9.678287506103516 197 179 177
-0.05501363053917885 0.7340861558914185 9.86913776397705 30 32 27
-0.7613748908042908 2.1606507301330566 8.21829891204834 83 71 75
0.10937707871198654 2.0240728855133057 9.09403133392334 202 219 209
0.43210506439208984 -0.5396897792816162 9.45266342163086 188 198 189
-0.28632020950317383 0.5310782194137573 9.741613388061523 60 60 58
0.27637889981269836 -0.31977152824401855 9.406553268432617 148 161 151
-0.4934651255607605 1.8566862344741821 8.336709976196289 168 189 194
0.9710697531700134 -0.778946578502655 10.222638130187988 48 36 38
-1.5569448471069336 2.543203592300415 8.213632583618164 65 55 108
-0.2749632000923157 -0.639163076877594 9.421915054321289 184 197 179
0.5386871099472046 -0.9787227511405945 9.773449897766113 178 187 182
-1.1305838823318481 1.4694206714630127 10.004427909851074 143 127 101
-2.7508575916290283 2.2554991245269775 8.798473358154297 128 163 185
0.16238921880722046 -1.1575356721878052 9.830604553222656 139 145 145
1.2498306035995483 -0.7215762734413147 10.15546989440918 84 68 79
-0.5026102662086487 1.5208100080490112 8.396943092346191 23 35 75
-1.8602235317230225 2.032522678375244 8.602081298828125 144 153 160
-1.6383576393127441 2.3521664142608643 8.234518051147461 136 171 191
0.08964160829782486 0.5365641117095947 9.700084686279297 69 65 79
0.7236183881759644 0.33409303426742554 9.824968338012695 36 43 85
-0.5749545693397522 1.874764084815979 8.315509796142578 66 86 123
-2.5841236114501953 2.1189916133880615 8.628231048583984 51 59 121
-0.5751194357872009 0.1325230747461319 9.62551498413086 152 163 155
-0.32075896859169006 -0.16945672035217285 9.432077407836914 129 139 140
0.7048184871673584 -0.934886634349823 9.871052742004395 174 163 143
-3.012582778930664 2.416999578475952 8.837739944458008 75 101 124
0.7624194025993347 -0.19330093264579773 9.609541893005371 107 129 126
0.0709974393248558 -0.9809693694114685 9.618659019470215 229 241 239
0.3960272967815399 -0.8170840740203857 9.531384468078613 203 222 220
0.5497969388961792 -1.42909836769104 10.420158386230469 116 102 101
0.6993950605392456 -1.2776256799697876 10.397465705871582 119 102 110
-3.0043396949768066 2.376155138015747 8.909805297851562 75 84 89
-0.6070918440818787 1.4089617729187012 9.934792518615723 43 80 63
-0.7592222690582275 -0.5425336360931396 9.680135726928711 174 164 155
-0.6154479384422302 1.413848876953125 8.394789695739746 70 94 118
-0.46219009160995483 0.5465588569641113 9.837785720825195 92 103 97
-0.8326427340507507 -0.309632271528244 9.730477333068848 76 80 83
-1.704253911972046 2.5400280952453613 8.298088073730469 83 81 121
0.6122454404830933 -0.027758272364735603 9.530961036682129 87 112 116
-0.008944381959736347 2.1426033973693848 8.721903800964355 141 151 163
-1.0646339654922485 2.2068493366241455 8.338913917541504 151 133 147
-0.6856924295425415 -0.5450652241706848 9.604345321655273 107 98 89
-1.1058290004730225 -1.686349630355835 11.190933227539062 121 105 105
-0.6559578776359558 0.1710371971130371 9.680113792419434 99 113 126
-0.6238776445388794 -0.14979809522628784 9.562554359436035 157 165 168
0.17200540006160736 2.276601552963257 8.516722679138184 136 139 130
0.18107010424137115 -1.1211823225021362 9.790846824645996 149 155 151
0.5481917858123779 -0.48516446352005005 9.496044158935547 152 164 160
-0.24034324288368225 2.239032745361328 8.111516952514648 135 133 144
-2.051103115081787 2.029388904571533 8.662611961364746 58 59 79
-0.7095352411270142 -0.42536935210227966 9.59355640411377 175 191 188
-0.11654096096754074 -0.9608373641967773 9.613367080688477 236 251 244
-1.9462637901306152 2.076491594314575 8.612298011779785 162 165 180
-0.32019805908203125 1.392602562904358 10.502958297729492 79 78 83
-0.359330415725708 2.65798020362854 7.639257431030273 59 57 97
-0.5275381207466125 0.16325543820858002 9.607085227966309 155 172 166
-1.4750117063522339 2.0634007453918457 8.506897926330566 57 58 60
-0.6101200580596924 0.11172881722450256 9.617242813110352 93 90 85
-0.33506783843040466 2.6744115352630615 7.611822128295898 95 83 133
0.21895839273929596 1.0089426040649414 10.19884204864502 77 84 66
1.198317050933838 -0.39103707671165466 10.17954158782959 69 54 57
-2.9623148441314697 2.107330799102783 8.840666770935059 38 62 100
-1.4849618673324585 2.0828723907470703 8.514504432678223 150 169 184
0.7200801968574524 2.1152679920196533 9.768014907836914 94 93 89
0.190964475274086 -0.5200158357620239 9.401253700256348 166 178 164
0.16286121308803558 -0.0708218663930893 9.391179084777832 37 49 65
-0.20751990377902985 -0.09522650390863419 9.381854057312012 153 166 159
0.8564876317977905 0.14655351638793945 9.811711311340332 119 152 183
-2.129002809524536 2.010981321334839 8.997113227844238 151 164 173
-1.3530861139297485 2.579956293106079 8.176287651062012 70 66 103
0.6837509274482727 -0.8354576826095581 9.74028491973877 173 156 136
-0.8524327278137207 -0.3016219735145569 9.71606159210205 171 171 169
-1.2826346158981323 2.161283016204834 8.037232398986816 69 66 93
0.2084634006023407 2.1812901496887207 8.721718788146973 53 48 55
0.20633287727832794 2.4756619930267334 8.573735237121582 69 95 146
1.2056686878204346 -1.0139610767364502 10.177547454833984 128 109 111
-0.7700706720352173 -0.13807837665081024 9.67114543914795 126 111 108
0.993726909160614 -1.3774758577346802 10.23568058013916 110 104 108
0.23862206935882568 -0.7400543093681335 9.458946228027344 183 192 189
0.7328348159790039 0.31137359142303467 9.798784255981445 97 135 174
-0.5101073980331421 2.416731595993042 7.716036319732666 111 150 179
-1.3332734107971191 1.7664482593536377 9.359674453735352 99 110 130
0.2172602415084839 2.348181962966919 8.55599594116211 81 99 147
1.0460178852081299 -1.1623822450637817 10.23747444152832 96 85 93
0.2348981648683548 0.6244334578514099 9.815485954284668 24 21 30
0.9221439361572266 -0.450446754693985 9.761255264282227 64 52 64
-2.750946521759033 2.255558967590332 8.79875659942627 128 163 185
-2.0040242671966553 2.185960292816162 8.374055862426758 61 67 117
-0.8317310214042664 0.0015784325078129768 9.744668006896973 70 69 65
-0.6552232503890991 -0.5330070853233337 9.601232528686523 156 156 148
-1.1314127445220947 2.174013137817383 8.085627555847168 138 133 153
0.11983556300401688 -1.2008346319198608 9.923209190368652 167 162 158
-0.5498307347297668 2.5218331813812256 7.805532455444336 122 147 167
-0.1883852332830429 -0.5254912376403809 9.406822204589844 66 68 63
-0.46850547194480896 2.109665870666504 8.343436241149902 98 115 105
0.17597948014736176 2.188835620880127 8.639140129089355 61 46 65
0.050320520997047424 1.7415136098861694 9.66994571685791 195 198 179
0.6768047213554382 1.6555523872375488 10.575911521911621 100 88 100
0.8577677607536316 1.5573922395706177 10.487537384033203 91 80 84
-0.04054254665970802 2.177347183227539 8.517953872680664 79 63 74
-0.5118175745010376 0.0616370253264904 9.571855545043945 139 155 144
-0.49801206588745117 1.4867750406265259 8.419979095458984 31 40 79
-0.28463461995124817 -0.11150699108839035 9.410238265991211 161 177 174
0.9261111617088318 1.7394071817398071 10.413707733154297 126 124 111
1.104285478591919 -0.57817542552948 10.230813026428223 44 39 43
-0.2644392251968384 1.4175013303756714 10.475025177001953 65 79 79
0.4205438494682312 2.126239061355591 9.21328353881836 79 80 84
0.1919741928577423 0.18037544190883636 9.486598014831543 34 58 70
-2.7393958568573 2.024629592895508 8.692146301269531 153 175 212
0.5199476480484009 0.5386718511581421 9.865375518798828 59 59 71
-0.5282641649246216 2.4829351902008057 7.769612789154053 108 142 167
-1.1561230421066284 2.093564748764038 8.257030487060547 120 130 142
1.0840107202529907 -0.8462961316108704 10.222678184509277 96 79 85
-0.16519947350025177 2.318767547607422 7.86854362487793 102 78 100
-0.19981548190116882 -0.7999433875083923 9.523393630981445 104 112 114
0.3576483726501465 2.484283447265625 9.007267951965332 70 87 156
0.26865366101264954 2.157655954360962 8.838944435119629 30 28 41
0.2127062976360321 2.3129026889801025 8.557558059692383 104 110 124
-0.00044827174860984087 2.3740971088409424 8.12677001953125 35 49 86
-1.9975827932357788 1.9154866933822632 9.068403244018555 45 44 40
-0.3715952932834625 -1.1070798635482788 9.846989631652832 218 238 227
-0.718562126159668 1.665736436843872 8.32376766204834 58 77 120
-0.3257655203342438 -1.3397643566131592 10.469242095947266 24 25 30
1.1489123106002808 -0.6199132204055786 10.242851257324219 78 63 66
-0.9334495067596436 -0.03776136040687561 9.87643814086914 74 88 89
0.9473291635513306 -1.0422526597976685 10.300440788269043 107 91 94
-0.07565978914499283 2.1830220222473145 8.446966171264648 104 80 104
-0.4037633538246155 0.5725834369659424 9.875744819641113 93 96 87
-1.0278364419937134 2.4108200073242188 7.995555400848389 116 144 165
-0.621685802936554 0.23812948167324066 9.700323104858398 130 151 156
-0.7142119407653809 2.4510273933410645 7.8319244384765625 109 150 170
0.06788913160562515 1.7636263370513916 9.631996154785156 55 87 102
-0.3698635399341583 -0.5357192754745483 9.4606294631958 168 173 167
-0.20608405768871307 -0.40263625979423523 9.40005111694336 151 152 138
0.2646758258342743 0.6963403224945068 9.89927864074707 62 60 71
0.33207425475120544 -0.6008574366569519 9.435007095336914 161 172 164
0.6277291178703308 -1.4800465106964111 10.396246910095215 125 110 115
0.270738422870636 -0.22405122220516205 9.368403434753418 167 189 186
-0.5520935654640198 0.32032254338264465 9.714372634887695 123 131 116
-1.60326087474823 1.1636724472045898 10.384033203125 169 167 168
-0.5179076194763184 -0.6943452954292297 9.595008850097656 198 176 165
-0.9079088568687439 2.4365789890289307 7.9408769607543945 112 122 131
-0.19981683790683746 -0.7999446988105774 9.523412704467773 104 112 114
0.0014893928309902549 2.0070583820343018 9.154304504394531 203 225 213
-0.8049670457839966 1.894872784614563 8.232112884521484 72 99 144
-1.0062236785888672 -1.30615234375 11.139485359191895 63 60 69
0.5130154490470886 0.03433812037110329 9.52843952178955 106 125 140
0.5125958323478699 0.5968231558799744 9.927569389343262 32 28 43
-1.442384958267212 2.0972354412078857 8.477884292602539 101 114 123
-0.8457555174827576 -0.20482096076011658 9.721531867980957 123 115 112
0.5076625943183899 0.519071638584137 9.827166557312012 25 29 41
1.1688960790634155 -1.4654148817062378 10.05124282836914 38 38 48
0.663143515586853 -1.2450549602508545 10.408734321594238 108 102 102
0.8315199613571167 0.2475142478942871 9.976727485656738 90 134 171
-0.397016704082489 2.178375005722046 8.061812400817871 112 106 120
1.0081504583358765 2.2847375869750977 10.217287063598633 70 91 122
-0.3552974760532379 2.1592025756835938 8.410882949829102 103 107 118
-1.288957953453064 2.3725647926330566 8.078004837036133 55 69 104
-3.5880439281463623 2.6433260440826416 7.423854827880859 195 224 255
-0.8219358921051025 2.1500017642974854 8.250794410705566 88 103 106
0.8965891599655151 0.07348549365997314 9.854907989501953 64 81 107
0.07665566354990005 -0.2690953016281128 9.351933479309082 159 171 171
0.07144031673669815 0.28478050231933594 9.527228355407715 133 161 173
-1.192102074623108 1.4737287759780884 9.90511417388916 123 125 122
-1.4210083484649658 1.1403528451919556 10.190956115722656 152 156 133
-0.45126065611839294 -0.3901435434818268 9.447176933288574 168 187 185
-0.3798571527004242 -0.4698844254016876 9.42867660522461 165 180 177
-0.33065980672836304 -1.0886467695236206 9.840559005737305 112 123 119
-0.866232693195343 -1.434431552886963 11.07984733581543 64 64 76
-0.5030826330184937 2.1424245834350586 8.331494331359863 52 51 59
0.22380773723125458 2.456827402114868 8.605111122131348 49 53 100
-0.7129210233688354 1.4856171607971191 8.35850715637207 44 49 69
0.14259080588817596 -0.9482779502868652 9.550496101379395 226 249 233
-0.886125922203064 0.15225084125995636 9.910091400146484 119 141 154
0.6565555334091187 -0.5873417258262634 9.591203689575195 177 189 175
-0.42817360162734985 2.03131365776062 8.358585357666016 32 43 63
0.031698793172836304 -0.3764549791812897 9.366700172424316 142 152 143
-0.31130585074424744 1.9521276950836182 8.401911735534668 60 84 120
-2.113675832748413 1.8153443336486816 9.10502815246582 198 207 202
0.1736903339624405 1.742382287979126 9.90224838256836 195 202 208
0.4150364100933075 0.5149095058441162 9.772612571716309 51 63 77
-2.736654281616211 2.4436354637145996 8.769472122192383 22 28 52
-1.6329479217529297 1.8893448114395142 9.107599258422852 88 94 94
-0.5746287703514099 -0.7016196250915527 9.621537208557129 193 181 169
0.838469386100769 -0.14016090333461761 9.66659164428711 134 134 132
0.07995452731847763 2.1120269298553467 8.7654390335083 64 74 86
-0.22710199654102325 0.5805765390396118 9.738252639770508 80 73 65
-1.3150415420532227 2.0635287761688232 8.737631797790527 160 148 168
-1.2815972566604614 2.2485270500183105 8.033768653869629 72 98 121
0.16183063387870789 0.5828350186347961 9.642411231994629 69 66 61
0.2702844440937042 -1.4525781869888306 10.548545837402344 59 50 53
-0.09769833832979202 -0.4290550649166107 9.391904830932617 124 104 97
-1.4066354036331177 1.7469409704208374 9.484182357788086 138 146 149
-0.057394277304410934 2.261997699737549 8.180549621582031 127 119 132
-1.8031566143035889 2.0594327449798584 8.584563255310059 42 50 39
-1.8247984647750854 2.5005152225494385 8.335716247558594 86 85 103
0.2421264350414276 0.40892624855041504 9.631431579589844 99 111 111
-0.6371702551841736 -0.6623867154121399 9.635945320129395 187 180 174
-2.260319232940674 2.0342841148376465 8.799591064453125 143 145 166
-0.30961623787879944 -1.082138180732727 9.772126197814941 137 142 136
-2.7215189933776855 2.0836777687072754 8.675580978393555 23 35 77
-0.04766755551099777 2.461503267288208 8.056669235229492 60 59 93
-0.5610798597335815 2.0340540409088135 8.318585395812988 39 47 66
0.9589919447898865 0.14068619906902313 10.042903900146484 105 127 141
1.1280920505523682 -0.9563829302787781 10.195055961608887 93 68 71
-0.03341766446828842 0.07349874824285507 9.415445327758789 109 134 131
0.8530846238136292 1.7707945108413696 10.424653053283691 59 52 60
-0.36835768818855286 0.5798174142837524 9.828741073608398 57 58 53
-0.27928251028060913 1.9322494268417358 8.371006965637207 54 87 120
-0.3776872158050537 0.8954217433929443 10.652251243591309 54 63 68
-0.35113880038261414 0.5082155466079712 9.775616645812988 130 125 105
0.22379560768604279 2.456709146499634 8.604660034179688 49 53 100
0.5846631526947021 0.47890210151672363 9.844941139221191 57 65 78
-0.4334287941455841 2.2919702529907227 7.6739912033081055 143 134 155
-0.7864621877670288 -0.5616398453712463 9.701103210449219 179 169 160
1.074384331703186 -0.9135093092918396 10.229896545410156 84 73 77
-1.28263258934021 2.161280632019043 8.037221908569336 69 66 93
0.23103512823581696 2.3767292499542236 8.607284545898438 40 37 64
0.3021732270717621 2.3210136890411377 8.722192764282227 34 35 65
-1.335099697113037 2.4423298835754395 8.077136993408203 64 88 116
-1.7163300514221191 2.0850040912628174 8.50645637512207 155 161 183
0.1351756602525711 0.27316567301750183 9.487320899963379 127 156 170
-0.37393927574157715 -1.0819084644317627 9.803723335266113 119 125 121
-0.09148860722780228 2.3098256587982178 8.044708251953125 82 78 101
-2.032292127609253 1.6954642534255981 9.63460636138916 128 151 185
0.6772206425666809 2.0822486877441406 9.758947372436523 73 68 64
0.07408914715051651 2.1595473289489746 8.747188568115234 121 129 152
-0.8481388092041016 -0.5456761121749878 9.775138854980469 167 157 147
-0.7720581889152527 -0.5940752625465393 9.682701110839844 167 147 136
-0.9404219388961792 -0.4764091670513153 9.852362632751465 167 154 135
-0.3397709131240845 2.0750176906585693 8.465786933898926 42 51 66
0.3594805598258972 -0.20526215434074402 9.392854690551758 129 132 137
-0.456057071685791 0.3019489645957947 9.64838981628418 114 113 108
-0.18680620193481445 0.33856359124183655 9.563684463500977 54 47 55
0.46786606311798096 0.3659476935863495 9.679749488830566 110 129 127
-0.886755645275116 1.8186476230621338 8.300944328308105 107 138 182
0.2881426513195038 -1.3889813423156738 10.524038314819336 67 52 57
0.266905277967453 1.0640820264816284 10.203245162963867 107 107 95
-0.03341977298259735 0.07349925488233566 9.415482521057129 109 134 131
-1.2486276626586914 2.0745670795440674 8.740784645080566 136 137 157
-1.3218129873275757 2.3442063331604004 8.054463386535645 31 37 73
1.2112442255020142 -1.5147466659545898 10.112507820129395 152 156 123
0.44572731852531433 -0.5062414407730103 9.441583633422852 172 195 179
-1.7771528959274292 2.024658679962158 8.555292129516602 145 153 164
0.4070567190647125 1.6573078632354736 10.6906156539917 58 48 49
-0.8697562217712402 2.107671022415161 8.304662704467773 26 27 32
0.7864953875541687 0.03315776586532593 9.694196701049805 119 140 167
-1.4729424715042114 2.202557325363159 8.102859497070312 51 51 87
-0.19689545035362244 0.5609118342399597 9.736282348632812 60 51 52
-0.1907503306865692 2.1696200370788574 8.494962692260742 83 71 81
1.1761502027511597 -1.5637205839157104 10.090339660644531 90 97 90
-0.777184247970581 0.1353812962770462 9.771239280700684 94 111 118
-0.6617222428321838 -1.4431220293045044 10.94555377960205 97 91 95
1.0143193006515503 0.9501090049743652 10.374860763549805 65 67 66
-0.0684158205986023 0.34717363119125366 9.508127212524414 76 68 66
-1.4288184642791748 2.1056904792785645 8.427990913391113 146 163 170
-0.07708461582660675 2.198723316192627 8.424827575683594 151 149 160
0.28953710198402405 1.8594152927398682 9.882122039794922 23 22 27
0.7196143269538879 1.6689743995666504 10.549551963806152 62 52 63
-1.4569135904312134 2.302421808242798 8.131484031677246 90 103 112
-1.117809772491455 2.094599962234497 8.62459659576416 144 153 170
-1.4019869565963745 1.305007815361023 10.259171485900879 20 28 31
0.19096794724464417 -0.5200120210647583 9.401156425476074 166 178 164
-0.5351817011833191 2.1725754737854004 8.372027397155762 122 147 141
0.7560673356056213 -1.2270143032073975 10.343123435974121 112 104 102
-0.009728345088660717 -1.192678451538086 9.874038696289062 229 240 226
-1.5807154178619385 2.1354451179504395 8.268159866333008 150 146 173
-0.7378849983215332 2.165112018585205 8.168635368347168 128 113 134
0.964682936668396 -1.4628597497940063 10.232385635375977 77 64 71
-1.3663973808288574 2.085991621017456 8.415738105773926 49 50 52
-0.22069677710533142 1.0265992879867554 10.505457878112793 32 40 42
-1.2140966653823853 1.6833289861679077 9.222172737121582 222 232 255
-0.5784188508987427 -0.9246580600738525 9.798686027526855 196 182 169
0.7559778094291687 0.5299011468887329 10.215630531311035 46 74 98
1.0100312232971191 0.4267376661300659 10.27940559387207 51 46 52
1.4655500650405884 -1.501265048980713 10.33245849609375 95 106 100
-0.05464104935526848 2.2452569007873535 8.22254753112793 105 85 96
-0.3338625729084015 -0.5104488134384155 9.428078651428223 172 183 177
0.010097856633365154 2.229036808013916 8.339190483093262 87 76 92
-0.015503672882914543 2.5620033740997314 8.17293930053711 70 87 141
0.5824451446533203 0.356419175863266 9.719864845275879 75 91 107
0.8082685470581055 0.1986105591058731 9.813152313232422 36 64 104
0.2285737842321396 2.040559768676758 9.123475074768066 170 182 180
-1.2668031454086304 2.4019358158111572 8.053924560546875 78 110 135
-1.0354145765304565 2.161961555480957 8.154025077819824 134 120 135
1.1280925273895264 -0.9563841223716736 10.19505786895752 93 68 71
-0.4022905230522156 0.29173755645751953 9.624457359313965 125 118 108
0.06342844665050507 2.2228493690490723 8.396157264709473 134 101 120
0.010266175493597984 2.1812946796417236 8.579976081848145 132 139 145
1.0054638385772705 -1.1315088272094727 10.230731010437012 90 78 80
0.2860235571861267 2.385035991668701 8.712983131408691 90 106 132
-0.2518346905708313 0.1297234147787094 9.469040870666504 134 155 158
-0.22139200568199158 0.35335835814476013 9.591086387634277 117 102 105
-2.559394359588623 1.9784586429595947 9.185351371765137 135 131 148
0.023602139204740524 2.4217333793640137 8.161392211914062 40 44 91
0.5542962551116943 0.06246820092201233 9.555476188659668 144 168 172
-1.5642433166503906 2.0655858516693115 8.509929656982422 173 178 184
0.1909656822681427 -0.5200145244598389 9.401220321655273 166 178 164
-3.5139248371124268 2.6501920223236084 7.370872974395752 197 224 254
-0.3070451021194458 0.3428031802177429 9.579632759094238 80 69 67
-1.45210599899292 2.4377946853637695 8.136125564575195 67 71 74
0.8541448712348938 1.5241026878356934 10.463366508483887 41 46 49
-1.2492960691452026 2.0926103591918945 8.202448844909668 51 54 35
-0.40322205424308777 2.2784411907196045 7.656819820404053 125 112 132
-0.12164980173110962 0.3531075417995453 9.57129192352295 105 94 88
0.8232141137123108 1.6458715200424194 10.496668815612793 44 38 48
0.7532973289489746 -0.891726016998291 9.870614051818848 173 147 124
-0.7924007773399353 0.15520282089710236 9.779585838317871 130 160 158
-1.5474379062652588 1.9431499242782593 9.115373611450195 11 15 14
-1.2442787885665894 2.1584622859954834 7.988348960876465 128 139 169
-1.4164366722106934 2.484938383102417 8.11795425415039 101 122 165
-2.3543567657470703 1.9617973566055298 8.983938217163086 160 166 162
0.919202983379364 0.13127881288528442 9.919876098632812 107 132 139
0.2012183517217636 -0.7000254392623901 9.4399995803833 212 231 225
1.127002477645874 -0.706885814666748 10.238181114196777 109 91 91
-0.4337175190448761 2.185776948928833 8.1928071975708 126 118 131
-0.8623735904693604 2.148773431777954 8.241544723510742 80 82 97
1.5459680557250977 -1.5768173933029175 10.41849422454834 83 96 86
-0.6336753368377686 2.2010626792907715 8.068678855895996 102 98 113
0.44587576389312744 1.0150761604309082 10.194608688354492 21 21 19
-1.4294720888137817 2.0674784183502197 8.763928413391113 157 146 162
0.5244436264038086 0.07110407203435898 9.521544456481934 80 98 122
-1.409448266029358 2.0807597637176514 8.458659172058105 122 135 144
0.40822863578796387 2.140648603439331 9.166376113891602 140 141 146
0.8678897619247437 0.04774115979671478 9.783105850219727 123 142 156
-0.6652795672416687 2.4434919357299805 7.81900691986084 101 115 124
1.0460196733474731 -1.1623862981796265 10.237524032592773 96 85 93
-0.9211915135383606 2.1747896671295166 8.103870391845703 123 103 131
1.1543220281600952 -1.146501064300537 10.182734489440918 130 125 131
-0.038079507648944855 -0.14614149928092957 9.358205795288086 154 172 172
-1.0015085935592651 2.1180944442749023 8.256831169128418 88 80 91
-0.07382481545209885 2.250671625137329 8.168821334838867 100 77 97
-0.37632453441619873 0.27414682507514954 9.581183433532715 59 55 56
1.0456820726394653 0.8946226835250854 10.334371566772461 55 53 56
-0.07215563207864761 2.142387628555298 8.660523414611816 137 146 161
-1.1431509256362915 2.1371371746063232 8.207416534423828 152 160 181
0.117458276450634 -1.176437497138977 9.855708122253418 221 230 213
0.7816944718360901 -1.4217520952224731 10.33129596710205 126 110 111
0.11991304904222488 2.154646635055542 8.78126049041748 124 129 148
0.9485023021697998 2.003000497817993 10.43680477142334 168 158 131
-1.3116610050201416 1.1247429847717285 10.208731651306152 102 143 145
-0.515509307384491 2.186739683151245 8.218295097351074 133 129 144
