ply
format ascii 1.0
element vertex 704
property float x
property float y
property float z
property uchar red
property uchar green
property uchar blue
end_header
-0.3511764705181122 1.0305815935134888 6.770802974700928 119 146 175
0.843059778213501 0.1977226436138153 7.861023902893066 119 148 154
-0.15997453033924103 -0.6822180151939392 7.269473552703857 177 197 186
2.06793212890625 1.0496046543121338 6.37296199798584 74 109 115
0.004873143974691629 -1.2019833326339722 8.532453536987305 122 132 121
-2.8423242568969727 2.001138687133789 8.07000732421875 165 132 97
1.1041617393493652 1.8269580602645874 7.238163948059082 159 178 174
0.3797038197517395 0.5850394368171692 8.769658088684082 156 162 160
1.0463991165161133 1.3700485229492188 7.03778076171875 102 120 134
0.9697859883308411 -0.5731961131095886 8.35136604309082 77 83 81
-0.2555277943611145 -0.23875592648983002 9.071470260620117 155 167 163
0.32056835293769836 1.2538692951202393 9.702069282531738 171 180 163
-1.9931584596633911 0.7685288190841675 8.294856071472168 163 189 186
-1.4909096956253052 1.1926745176315308 5.223062515258789 130 149 164
-0.7704645991325378 -0.5048158764839172 8.600324630737305 54 63 70
-2.7999327182769775 1.5535075664520264 6.589963912963867 99 110 102
-0.25189927220344543 -0.8954008221626282 7.487010478973389 201 210 193
0.29762187600135803 2.661388874053955 8.798238754272461 70 96 145
0.7764762043952942 1.1354477405548096 7.378795623779297 87 80 111
0.44004252552986145 1.2104460000991821 10.491058349609375 85 112 142
0.8140175342559814 1.1502496004104614 9.034677505493164 96 116 123
-1.2965878248214722 2.1544392108917236 7.301417827606201 113 144 173
-0.246330127120018 3.805783748626709 7.098501205444336 130 149 164
0.24934494495391846 -0.7668603658676147 6.753990173339844 130 149 130
1.1945152282714844 -0.3141084313392639 9.652175903320312 145 157 145
0.9232814311981201 1.0119094848632812 7.0212016105651855 41 54 63
0.016179997473955154 0.7528091073036194 7.4735236167907715 161 167 165
-0.3879418969154358 -0.44741132855415344 8.178872108459473 158 178 176
-1.5606824159622192 1.5905072689056396 8.848403930664062 156 171 164
-1.6507445573806763 0.09759414941072464 7.311790943145752 195 207 197
-0.16903287172317505 0.992458164691925 9.241291999816895 171 180 163
0.5155109763145447 -0.5376979112625122 7.29583215713501 59 63 62
1.5978153944015503 -1.227074384689331 7.403994560241699 59 63 62
0.7754544019699097 0.004644662141799927 8.312973022460938 39 48 47
-0.9236560463905334 -0.538004457950592 8.59648323059082 192 204 202
0.9803714156150818 1.0774712562561035 8.374075889587402 32 47 66
-1.3235023021697998 -0.5014437437057495 8.893397331237793 155 167 163
0.260084867477417 -0.7991997599601746 8.341344833374023 152 176 176
2.751500129699707 -0.366725355386734 10.269758224487305 132 158 185
-0.3769987225532532 -0.955078125 6.288708209991455 150 157 150
-1.6292176246643066 0.46134403347969055 7.860382080078125 156 175 171
0.24265378713607788 -0.7520273327827454 7.13121223449707 145 157 145
-0.9376863241195679 0.21609631180763245 8.78489875793457 119 150 155
1.6347804069519043 -0.5876342058181763 9.82076644897461 209 228 222
-1.02311372756958 -1.131929636001587 7.804008960723877 146 161 166
0.2750455141067505 -1.2129217386245728 8.788946151733398 96 86 84
-1.7143223285675049 0.9995386600494385 8.997206687927246 132 114 76
0.12765152752399445 0.5217117071151733 6.431490898132324 61 88 118
-1.1054073572158813 0.6091117262840271 8.423304557800293 91 126 154
0.40427830815315247 -0.3602070212364197 6.635403633117676 155 181 194
1.200408697128296 1.029534101486206 9.007647514343262 160 147 128
-1.2191559076309204 0.637859046459198 9.414432525634766 160 183 167
-2.974337100982666 2.0447709560394287 8.379992485046387 203 187 171
0.6211680173873901 -1.4845396280288696 8.626389503479004 38 43 63
1.3928337097167969 -0.5169263482093811 8.007901191711426 46 56 55
-1.3061434030532837 1.8543510437011719 5.326526165008545 62 70 117
0.659996509552002 1.4653849601745605 8.358091354370117 39 48 47
0.9259365200996399 1.2613755464553833 10.189579010009766 32 33 51
0.0819585844874382 1.366231918334961 7.93651008605957 21 33 47
1.6568533182144165 0.7773059010505676 8.458691596984863 44 72 58
-0.17343582212924957 0.5483795404434204 6.883049011230469 36 45 54
-0.7424004673957825 -0.14245878159999847 8.068066596984863 163 189 186
2.075852870941162 1.5569661855697632 6.715427398681641 113 134 155
-0.3662310242652893 0.7607752084732056 6.308255672454834 157 178 179
-0.20776307582855225 0.7426406741142273 8.598822593688965 212 222 221
1.235009789466858 -0.07014055550098419 8.70676040649414 46 56 55
2.027678966522217 -0.06983641535043716 7.471050262451172 120 126 124
-1.4255716800689697 0.5047899484634399 8.948320388793945 146 170 170
1.2204879522323608 -1.1069798469543457 9.660806655883789 42 48 64
-0.7670019865036011 4.430753231048584 5.520237922668457 75 73 112
-0.8892583250999451 1.5873303413391113 10.454318046569824 205 218 209
0.7494533658027649 -0.5624250769615173 9.44569206237793 207 224 214
-1.858089566230774 0.5309709310531616 9.277271270751953 179 191 181
0.36151403188705444 -1.0011347532272339 8.473892211914062 157 176 170
0.17425338923931122 0.9300608038902283 6.641335487365723 130 145 148
-1.5608338117599487 2.211184501647949 8.121369361877441 108 135 144
-1.4608426094055176 1.9493530988693237 8.56157398223877 106 126 114
0.368542343378067 -1.5888057947158813 8.90235710144043 230 249 247
0.1801413595676422 2.3767542839050293 9.094260215759277 38 43 63
0.43102747201919556 -0.7158545255661011 6.494628429412842 108 124 124
0.5818496942520142 1.6727235317230225 8.384246826171875 173 194 187
-0.28875160217285156 1.7640981674194336 8.097567558288574 44 37 53
0.12221434712409973 0.2942095398902893 8.949406623840332 81 105 115
-0.33841121196746826 0.4230651557445526 7.664734840393066 96 116 123
-0.4103240668773651 0.37843987345695496 8.492817878723145 125 149 153
0.7796114087104797 -0.09542956203222275 9.129855155944824 144 153 150
-0.5846372246742249 2.7236509323120117 10.986631393432617 86 118 129
-0.8625411987304688 0.09014122188091278 8.140356063842773 152 178 169
-1.548323631286621 -0.6145883202552795 8.630658149719238 183 199 198
-0.9147221446037292 0.3468526601791382 5.1836676597595215 79 69 94
-0.5108863711357117 -0.1083846241235733 7.64855432510376 133 162 168
-1.656034231185913 2.0743939876556396 9.546672821044922 30 28 29
0.1739402711391449 0.08040297031402588 6.276360511779785 216 231 226
0.328239768743515 -0.9120363593101501 8.306550979614258 191 192 186
-0.5221598744392395 -0.7621411681175232 9.022254943847656 61 67 65
0.6587845683097839 -0.6271119117736816 9.36126708984375 167 184 174
-1.1305840015411377 -1.3907040357589722 7.85599422454834 101 104 93
0.5454632043838501 -0.2282974272966385 7.50409460067749 92 128 162
-1.7342628240585327 1.0834929943084717 6.145791530609131 83 82 90
-1.580984354019165 2.2370452880859375 5.586070537567139 68 67 107
-1.059691309928894 -0.4577367603778839 6.417503356933594 70 68 118
-0.13544943928718567 -0.19791734218597412 8.177410125732422 125 149 153
0.8097646832466125 0.5034667253494263 5.024763107299805 183 174 165
-1.3529200553894043 1.0685129165649414 7.193447113037109 117 147 149
-0.051702097058296204 -2.4411675930023193 8.414271354675293 134 144 135
0.5069082975387573 -2.3704020977020264 8.7164945602417 127 157 165
0.3981810510158539 1.3079588413238525 8.047236442565918 71 104 155
2.2536609172821045 -0.007432983256876469 7.359416961669922 120 126 124
0.49134561419487 0.17624816298484802 8.779404640197754 77 79 76
0.6680216193199158 1.8284895420074463 9.550322532653809 151 156 136
1.3117718696594238 -0.6387774348258972 8.4307861328125 44 44 52
-1.438957929611206 -1.1560951471328735 7.596922874450684 139 165 178
-1.6315991878509521 1.9242260456085205 7.1720356941223145 108 113 119
-0.0937737226486206 0.8058444857597351 8.704056739807129 204 221 215
-0.7627680897712708 -0.5172029137611389 8.289565086364746 197 196 192
0.7099494934082031 0.6483795642852783 8.946510314941406 211 222 205
0.7336445450782776 -0.8767905831336975 7.620421409606934 91 111 118
-0.2262096256017685 -0.04764702543616295 9.17725944519043 181 194 164
0.005518392194062471 0.8478853106498718 8.663200378417969 78 88 87
-0.8949403166770935 0.664953351020813 7.476438999176025 208 223 216
1.497084379196167 0.8926634192466736 8.628668785095215 132 120 104
-0.25208932161331177 -0.7084665894508362 8.802020072937012 27 31 30
-0.06464719027280807 -1.0618897676467896 8.60035514831543 175 197 184
-0.5332981944084167 3.0407023429870605 6.689322471618652 107 129 140
-0.6195691227912903 1.4059407711029053 9.0281400680542 126 129 118
0.5360456109046936 -0.22019073367118835 7.08273983001709 179 189 178
-0.13938359916210175 0.6085365414619446 7.683002948760986 122 154 167
0.7496192455291748 -1.832638144493103 6.860715389251709 196 223 208
0.5370163321495056 0.07936186343431473 8.188454627990723 181 192 175
-0.792389988899231 3.70503830909729 6.597463607788086 104 123 127
-1.1999520063400269 1.1125836372375488 8.766097068786621 126 150 160
-2.207245349884033 2.520838975906372 6.6502485275268555 139 162 170
0.2632835805416107 0.32405465841293335 8.527064323425293 178 199 194
-0.5703232884407043 1.0963596105575562 9.934972763061523 126 139 129
-0.18954648077487946 1.4570856094360352 7.867638111114502 156 176 185
-0.11718176305294037 1.0574458837509155 7.760377407073975 124 130 142
-0.9502705335617065 0.010924402624368668 7.8043742179870605 69 66 119
0.3841104209423065 -0.03264566510915756 9.482423782348633 175 192 176
-0.29376378655433655 -1.331616759300232 8.504725456237793 156 174 176
-0.6628315448760986 0.21452271938323975 8.065248489379883 128 140 138
1.9536298513412476 1.8161202669143677 8.708849906921387 48 42 52
1.7704057693481445 -0.9174032211303711 7.324658393859863 132 166 178
-0.8977813124656677 0.7593738436698914 6.752505302429199 45 55 106
-0.20153452455997467 -1.0046837329864502 8.606731414794922 84 95 117
-0.9755333065986633 -2.8344616889953613 7.478521823883057 102 83 87
0.265855073928833 -0.5880506634712219 9.271410942077637 197 196 192
-0.8106796145439148 -1.0957844257354736 7.928597450256348 207 221 221
-2.6692862510681152 0.15489521622657776 7.919670104980469 123 100 126
0.003818224184215069 1.2503849267959595 8.146387100219727 119 146 175
-1.0833537578582764 1.4372141361236572 7.692645072937012 103 112 111
0.8422302603721619 -0.7309820652008057 8.57799243927002 157 173 173
-1.7218348979949951 0.5648613572120667 5.496193885803223 97 123 150
-0.45510658621788025 -1.8399631977081299 7.18620491027832 80 68 70
-0.9467719197273254 2.160670280456543 9.791646003723145 18 24 24
-1.3551257848739624 -0.1525111347436905 9.588995933532715 115 153 176
-1.921400785446167 2.1786277294158936 7.270856857299805 79 70 127
0.12179724127054214 -0.06017063930630684 8.92576789855957 101 102 88
0.8535666465759277 3.3019540309906006 7.637228012084961 73 88 85
-0.5162407755851746 2.591848850250244 7.646603107452393 127 165 178
-0.5830877423286438 -0.10235656797885895 8.736623764038086 78 76 77
-2.3997435569763184 -0.23842290043830872 9.515697479248047 184 173 169
0.11248677968978882 2.0403802394866943 9.752820014953613 174 180 154
2.812974691390991 0.9517297744750977 7.351707458496094 178 199 194
0.1676262617111206 0.6943339109420776 8.781600952148438 41 54 63
-0.22605694830417633 1.9090251922607422 9.526226043701172 140 168 169
0.679577648639679 -0.481491357088089 7.982710361480713 120 118 119
0.4328867793083191 1.0745309591293335 9.258325576782227 90 81 86
-2.8640689849853516 1.3049657344818115 6.770876884460449 79 72 106
0.13305318355560303 -1.027695655822754 8.521163940429688 123 157 159
0.7088224291801453 2.9138894081115723 6.801370143890381 43 41 42
-2.23272442817688 -0.9099329710006714 8.145354270935059 36 44 46
-2.0640645027160645 -1.0267072916030884 7.316652774810791 218 234 231
0.5639950037002563 2.3756320476531982 7.260787010192871 119 127 130
-1.6843255758285522 1.655394196510315 7.4300384521484375 21 22 50
0.2200625091791153 -0.8067839741706848 9.122526168823242 65 60 57
-0.5998628735542297 -0.12556768953800201 9.057195663452148 101 106 102
-0.022934118285775185 1.4071145057678223 9.673595428466797 121 135 122
-2.162515640258789 -1.1033493280410767 8.358372688293457 130 172 196
-0.08082850277423859 0.9818791151046753 7.775301933288574 46 55 70
1.4384570121765137 0.7957041263580322 8.203742027282715 156 162 160
0.08513914793729782 -1.1554371118545532 7.368898868560791 158 145 137
0.9286214709281921 0.3380337059497833 8.734018325805664 143 135 124
0.8008422255516052 0.9609155654907227 8.162755966186523 128 131 120
0.20819005370140076 0.2582608759403229 8.921958923339844 138 154 154
-0.6037403345108032 0.5957639813423157 7.711374282836914 22 21 27
-0.09226039052009583 -0.5218555331230164 7.394751071929932 75 71 70
0.6580572128295898 -2.1656296253204346 7.796779632568359 110 89 94
0.744188666343689 1.5136291980743408 7.177438259124756 42 40 54
0.43368974328041077 0.0869683250784874 8.311610221862793 62 78 94
2.855142116546631 -1.3967745304107666 8.294171333312988 164 178 178
0.9851728081703186 -0.21935968101024628 8.28512954711914 88 91 100
-0.7365577220916748 0.03616961091756821 8.368144989013672 119 127 130
2.060072422027588 1.1336653232574463 7.8751220703125 155 180 174
-1.1508688926696777 0.9379845857620239 8.530267715454102 51 49 54
-0.3986431658267975 0.9318826794624329 6.932217121124268 21 26 66
0.8306073546409607 -0.3009915053844452 7.027085304260254 109 100 101
-1.8435982465744019 2.234264612197876 8.13810920715332 31 36 40
-1.0452046394348145 -0.8650813698768616 9.633254051208496 131 149 127
0.21153390407562256 0.3204095959663391 7.763364791870117 160 177 167
-0.14001351594924927 0.8786460161209106 10.410662651062012 144 167 175
2.3455519676208496 -0.598623514175415 9.685449600219727 206 222 212
0.24893200397491455 -0.6732568144798279 6.933588981628418 189 206 200
0.05461668595671654 0.6099903583526611 8.249754905700684 72 85 93
0.08340547978878021 0.7474250793457031 8.150217056274414 211 232 223
-1.7161213159561157 1.3610343933105469 7.9464521408081055 95 83 131
-0.6950166821479797 0.8399505019187927 7.662367820739746 208 225 215
-1.3896719217300415 2.8758389949798584 8.088862419128418 115 113 126
0.34567564725875854 0.9663612246513367 7.910344123840332 44 45 91
1.614035725593567 2.9704415798187256 6.729674816131592 120 136 125
0.7400071024894714 -0.6695051789283752 7.641410827636719 131 150 130
-0.7348287105560303 0.14033320546150208 8.459563255310059 53 53 63
-2.002556324005127 3.2890188694000244 8.481950759887695 28 27 33
-0.01976608857512474 -1.4019752740859985 8.741567611694336 167 177 168
-1.6314772367477417 2.379857301712036 8.30886459350586 68 80 104
-0.04882170632481575 0.3682292103767395 8.361259460449219 79 107 119
-0.9136790633201599 0.2906542122364044 8.603250503540039 128 160 185
1.4573760032653809 -0.41040846705436707 9.102631568908691 88 91 100
1.0513995885849 1.081315040588379 8.48833179473877 86 114 135
-0.33349668979644775 2.4741415977478027 7.069012641906738 64 51 71
0.08400462567806244 -0.5231425166130066 8.99812126159668 78 76 79
0.16094852983951569 1.3089717626571655 9.222541809082031 152 169 176
0.7402020692825317 -1.8139543533325195 8.464686393737793 170 182 168
0.49336114525794983 0.3925848603248596 7.236325740814209 149 166 160
0.4061815142631531 2.0819809436798096 6.945178508758545 134 123 140
-0.45363426208496094 3.4027392864227295 8.915671348571777 153 171 185
-2.022073984146118 1.938161849975586 7.662683010101318 50 50 102
-1.0809575319290161 -2.61803936958313 8.614177703857422 108 96 106
-0.2664707899093628 -0.254035621881485 9.984769821166992 70 60 59
2.093874931335449 0.7218517065048218 9.581144332885742 173 180 173
0.05877373740077019 -0.6196016073226929 8.684242248535156 55 54 70
-1.4621604681015015 1.721549153327942 8.649024963378906 58 55 64
1.379097819328308 1.109265685081482 7.156686782836914 179 185 185
-1.3687920570373535 0.28951701521873474 8.546621322631836 43 46 55
1.08811354637146 -0.42789405584335327 7.730717658996582 162 174 174
0.31628745794296265 2.7941956520080566 7.415318012237549 43 70 115
-0.8408060669898987 -0.36374056339263916 8.139458656311035 143 132 126
-2.2157230377197266 0.934071958065033 8.143406867980957 75 88 79
0.11803512275218964 1.4863756895065308 8.115569114685059 72 83 87
-0.6604239344596863 0.9498793482780457 8.807561874389648 134 137 130
-4.735616683959961 4.255228042602539 7.244098663330078 189 209 246
0.4501212239265442 0.09788478910923004 7.878024578094482 138 153 158
0.8174748420715332 0.5970885753631592 9.294179916381836 140 136 125
1.07253897190094 -1.4665757417678833 7.8445143699646 158 159 151
0.36028915643692017 -1.9571365118026733 6.9765238761901855 202 213 207
-0.005512823350727558 2.0150578022003174 6.042745113372803 102 120 134
0.530899703502655 -1.3816896677017212 8.096492767333984 177 192 171
0.42211729288101196 0.574661135673523 8.517216682434082 128 160 171
-0.009807632304728031 -0.3429698646068573 8.732840538024902 191 209 183
-1.0292603969573975 0.23254404962062836 7.738669395446777 123 118 115
-2.900859832763672 -0.16613151133060455 7.063862323760986 100 119 117
-2.400575876235962 -1.1483277082443237 7.715402126312256 61 57 118
-0.877288281917572 1.4919122457504272 7.612904071807861 172 198 197
0.28123730421066284 -0.44212472438812256 10.492537498474121 44 43 41
1.0666686296463013 -0.2991308569908142 9.76830005645752 53 55 54
-0.6245922446250916 -0.6331146955490112 8.690744400024414 113 103 101
0.42240962386131287 0.16307894885540009 6.561785697937012 42 56 93
-2.2787344455718994 4.277282238006592 8.755640029907227 63 82 124
-1.0675019025802612 0.31651464104652405 8.63064193725586 42 46 45
-0.947545051574707 -0.7588279843330383 6.679953575134277 139 153 166
-0.4523300528526306 0.3398802876472473 6.698342323303223 197 217 208
-0.5940102934837341 2.051724672317505 9.07006549835205 84 74 72
2.0863900184631348 0.006263914983719587 7.555614471435547 152 164 152
-1.255028247833252 0.046927958726882935 11.252195358276367 72 85 93
-0.3271796405315399 1.1084587574005127 7.700918674468994 58 58 68
0.15195749700069427 -0.09675727784633636 9.541780471801758 227 243 233
-1.2797067165374756 1.7253485918045044 9.284014701843262 101 84 74
0.3743390142917633 0.8607728481292725 7.650214672088623 134 163 167
0.2172001451253891 3.5272185802459717 6.509476184844971 96 117 118
-1.357426404953003 1.768236517906189 6.759212970733643 130 162 183
0.5247865915298462 1.0162253379821777 7.660559177398682 66 67 71
-0.347874253988266 1.689858317375183 8.030543327331543 87 74 120
-3.616877555847168 2.37831974029541 6.969967365264893 130 162 183
-0.27438974380493164 1.8088674545288086 8.584578514099121 131 137 151
0.259849488735199 1.9074795246124268 7.9783196449279785 68 100 149
-2.648212432861328 1.9025787115097046 9.215291023254395 120 152 177
0.20213355123996735 -0.6510038375854492 8.848456382751465 206 223 217
-0.4037313163280487 1.9231572151184082 7.1444902420043945 57 54 63
2.628089427947998 -1.1954694986343384 7.755589008331299 188 181 173
-1.063847303390503 0.3724602460861206 8.10389518737793 168 179 173
-0.4843643605709076 0.5191938281059265 8.211186408996582 125 126 118
0.12172114104032516 0.5560006499290466 8.551197052001953 178 178 170
-2.386592149734497 2.0887808799743652 9.149751663208008 93 91 79
-0.7256461977958679 1.8152241706848145 7.6337971687316895 135 115 127
-0.6129367351531982 3.1782891750335693 8.922109603881836 77 86 69
-0.2884168326854706 0.7769467234611511 8.168777465820312 56 75 115
-0.7459164261817932 2.8198814392089844 5.399105548858643 120 151 179
-2.6127169132232666 1.227994680404663 6.954304218292236 124 161 180
1.1296898126602173 -1.882090449333191 8.231012344360352 70 74 75
-0.6206583976745605 2.3104963302612305 7.016512870788574 148 156 159
-2.326706647872925 2.5874383449554443 8.310358047485352 133 138 134
1.162663459777832 -0.6707375049591064 8.671728134155273 123 123 121
-0.006416016723960638 0.7863831520080566 8.933609962463379 142 172 183
-0.32200419902801514 1.1830617189407349 6.397494316101074 68 85 115
1.5443925857543945 0.2692517340183258 8.863394737243652 101 102 88
0.286905974149704 1.69558846950531 9.018508911132812 169 165 179
0.4705767333507538 0.43552646040916443 8.653348922729492 101 129 143
-0.40566349029541016 -0.5068689584732056 9.515326499938965 110 86 86
-0.3207431137561798 -1.3396662473678589 6.427473068237305 218 231 214
-1.1575068235397339 1.5468664169311523 7.917840480804443 180 184 170
-0.29536497592926025 -2.1239280700683594 8.96889591217041 113 103 101
-1.7057816982269287 1.9771910905838013 7.76710319519043 42 74 95
-1.1478708982467651 1.3272387981414795 7.630783557891846 78 88 87
-0.29045242071151733 -0.9876952767372131 8.884465217590332 224 221 214
-0.5370188355445862 1.5951383113861084 7.4733757972717285 70 76 76
0.8102924227714539 -1.0348589420318604 7.222002983093262 209 230 225
-1.1867210865020752 -0.3041144013404846 6.714199066162109 110 124 125
-0.9945688843727112 2.213758707046509 10.724613189697266 28 33 29
2.369474172592163 -0.02132294327020645 9.87160587310791 139 127 115
0.27247270941734314 -0.3167184293270111 7.403183460235596 68 96 120
0.14177319407463074 2.0013198852539062 8.07705020904541 35 42 48
-0.434615820646286 -0.1241474375128746 9.239150047302246 65 92 111
-2.1990818977355957 3.023871898651123 9.317663192749023 57 64 70
-0.25266891717910767 -0.8358463048934937 9.33537483215332 44 45 76
-0.7310933470726013 3.449883222579956 7.292243957519531 97 119 117
0.9041338562965393 -0.34482666850090027 7.503247261047363 171 184 177
0.37857797741889954 -0.39621052145957947 8.617204666137695 115 139 151
1.418223261833191 0.2667790651321411 8.640157699584961 192 192 194
-0.12148114293813705 -1.1892424821853638 7.2651824951171875 192 204 202
1.4110227823257446 0.44628289341926575 9.215310096740723 155 152 143
1.6137415170669556 -1.666966438293457 10.862956047058105 109 112 93
0.17581480741500854 0.6457664370536804 8.11668586730957 73 88 83
0.3366783559322357 -0.47795480489730835 9.558185577392578 110 137 148
2.2702014446258545 0.7609370946884155 6.170621395111084 238 249 245
-1.9340368509292603 0.3789356052875519 8.612488746643066 176 187 171
-0.8330130577087402 1.7383612394332886 8.8599271774292 22 23 25
1.118749976158142 -0.6557859182357788 8.180315017700195 172 163 156
0.6602398157119751 -0.9434167146682739 8.89181900024414 123 114 117
-1.9823472499847412 -0.34733060002326965 7.473684310913086 66 67 71
0.07284959405660629 -0.12074071913957596 7.490915298461914 89 83 69
-3.9518473148345947 0.06471303850412369 7.7831854820251465 181 173 196
-1.0931527614593506 0.07990844547748566 7.259437561035156 57 67 68
-1.2309949398040771 0.759614109992981 7.465377330780029 67 67 77
-1.3207519054412842 0.8193789124488831 9.79764175415039 214 233 229
-2.2804059982299805 1.7702233791351318 7.242881774902344 119 164 193
-0.33713072538375854 0.5864760279655457 8.8407621383667 95 102 131
-0.7183985114097595 0.04765509068965912 8.90560245513916 184 194 186
0.7659781575202942 -0.7714521288871765 8.452530860900879 221 232 216
0.01169753447175026 0.5804149508476257 8.882503509521484 192 208 197
-0.027905259281396866 1.3439311981201172 8.013962745666504 27 34 63
-1.2333356142044067 1.7589566707611084 8.420108795166016 33 28 32
-1.0023328065872192 1.9202841520309448 7.012111186981201 98 98 108
-1.0087716579437256 -0.3194548785686493 6.068418979644775 221 237 227
0.6101449131965637 2.8083765506744385 10.397273063659668 38 35 42
1.4232763051986694 0.6828990578651428 9.65457820892334 126 125 105
0.08381705731153488 -2.546090602874756 9.884575843811035 75 77 76
0.23179037868976593 1.2627718448638916 7.488797664642334 27 50 118
1.0150797367095947 -0.13005425035953522 9.691570281982422 127 141 141
-0.6556268334388733 1.2363851070404053 6.946779251098633 184 192 179
0.18014828860759735 -0.002316472353413701 9.038820266723633 95 122 139
2.402754068374634 -0.7899391055107117 8.484502792358398 77 91 94
-1.8370702266693115 0.44952940940856934 8.525898933410645 188 180 167
0.23013590276241302 -1.4029297828674316 9.090561866760254 174 186 174
-0.9269942045211792 -1.0284234285354614 7.408514976501465 123 137 138
0.6360931396484375 0.6676000356674194 9.309892654418945 98 117 113
0.17017613351345062 0.7753621339797974 7.567188262939453 174 171 202
-0.5218235850334167 -0.2337484359741211 10.297429084777832 99 118 112
-0.4047755002975464 -0.839258074760437 8.525876998901367 117 108 93
-0.6427810192108154 2.1793031692504883 6.824413299560547 179 165 198
0.9614949226379395 -1.9979169368743896 6.977338790893555 112 129 123
-1.5294663906097412 1.4787530899047852 9.557450294494629 155 165 164
1.161989688873291 2.614210844039917 7.302772045135498 109 139 175
-0.8699094653129578 1.465111255645752 7.715639114379883 93 99 95
0.5048252940177917 -0.3508368730545044 7.339811325073242 76 62 62
-0.34515300393104553 1.8749589920043945 8.672603607177734 162 174 160
1.2540230751037598 1.7735427618026733 9.098901748657227 87 92 86
-1.3293132781982422 -0.389862596988678 7.434996604919434 42 50 71
-0.11318090558052063 0.6892721652984619 7.117641925811768 214 225 219
-1.0549870729446411 2.663437604904175 7.1484551429748535 152 139 169
-0.2100299447774887 -3.312666893005371 6.496039867401123 205 191 191
-0.7676944732666016 2.6646957397460938 6.437794208526611 125 144 151
0.922328531742096 0.5723511576652527 10.099002838134766 119 110 105
-0.5462682247161865 3.35537052154541 8.52997875213623 125 107 103
-2.029616355895996 -1.2979165315628052 7.668886661529541 151 174 166
-0.9031082391738892 0.7559999227523804 9.740912437438965 152 160 149
1.5299257040023804 0.09404285997152328 8.38981819152832 42 50 71
0.17375119030475616 2.2004404067993164 8.084506034851074 117 132 135
-1.154889464378357 -0.4361937940120697 8.47826099395752 112 124 124
-0.6475120782852173 1.8374876976013184 7.400588512420654 113 120 113
0.3728879690170288 0.4276244640350342 10.138236999511719 166 175 174
-0.7742393612861633 1.5789926052093506 8.875783920288086 80 77 104
0.6651344299316406 -0.44676390290260315 9.817614555358887 104 135 155
0.21024975180625916 -0.3569518029689789 7.796340465545654 163 177 177
-2.91823673248291 -0.47549745440483093 10.632832527160645 65 65 67
-1.3953418731689453 1.4260259866714478 7.171773433685303 106 120 131
-0.5268974900245667 -2.522871494293213 7.615862846374512 123 146 162
0.6525354981422424 0.4818371832370758 9.261908531188965 45 46 67
-1.7545790672302246 -1.9291436672210693 8.038116455078125 193 205 203
-0.3546913266181946 -1.0022507905960083 8.108202934265137 232 245 238
-1.2880626916885376 -0.2275933027267456 10.076176643371582 150 139 133
-0.4782736897468567 -0.401321679353714 8.91598892211914 117 137 138
0.4428510367870331 2.8105409145355225 7.575826168060303 80 84 95
-1.78799569606781 0.5698071718215942 5.581188678741455 62 50 96
0.3695523142814636 -0.43403705954551697 7.910369396209717 88 88 88
-0.5649850368499756 1.2975236177444458 8.528605461120605 49 47 48
-1.3880279064178467 0.6493577361106873 9.694219589233398 92 116 128
0.17971983551979065 2.315504550933838 9.2374906539917 27 45 49
0.965828537940979 1.8514432907104492 9.81397819519043 21 20 18
-0.0536646693944931 0.5606269240379333 7.212143898010254 99 126 156
-1.2297017574310303 1.1241923570632935 9.590407371520996 127 141 141
-1.099987506866455 -0.07247039675712585 8.036181449890137 111 149 185
0.4543994963169098 4.007906436920166 8.415205001831055 46 81 113
-1.5342543125152588 1.614837408065796 7.731863975524902 147 157 169
0.7154995799064636 -0.00654620723798871 8.246699333190918 127 135 124
0.6895757913589478 0.33520469069480896 7.227207183837891 198 220 208
1.3361998796463013 -0.3634667694568634 9.900001525878906 149 144 124
-1.3499377965927124 -0.12066428363323212 6.07965612411499 121 131 120
-1.6676743030548096 -2.2977123260498047 9.729347229003906 216 235 229
-0.12241854518651962 1.8689181804656982 8.868383407592773 121 117 106
-0.7639261484146118 -0.7874486446380615 9.07606029510498 219 236 228
-1.1193474531173706 -1.629172921180725 7.171762466430664 9 9 11
0.5854747891426086 0.7047797441482544 7.897831439971924 19 24 53
-1.9019825458526611 2.217092990875244 7.330453395843506 129 156 186
-0.20297570526599884 -0.9352278709411621 8.824383735656738 95 102 131
-1.735704779624939 1.968238115310669 7.9671549797058105 49 52 57
-1.3046730756759644 0.5586718320846558 7.383397579193115 176 171 175
0.6563588976860046 0.45184525847435 6.757474899291992 133 159 158
-1.1920440196990967 1.4803636074066162 7.305418968200684 57 64 70
-1.0017070770263672 1.4321420192718506 10.978404998779297 31 30 35
-1.6189817190170288 1.2308865785598755 6.240715026855469 78 69 116
1.4820483922958374 0.34212785959243774 8.32181453704834 61 62 66
-0.16445551812648773 -1.6232585906982422 8.260782241821289 178 166 154
-0.0386129766702652 1.8692890405654907 8.49799633026123 193 204 190
-0.4533131420612335 2.4062750339508057 7.539541244506836 105 131 156
0.2797383666038513 -0.9472994804382324 8.293721199035645 78 82 65
-2.4087512493133545 0.13939689099788666 6.885058403015137 78 66 112
-2.0488674640655518 1.5284117460250854 6.393415451049805 152 148 165
1.1316496133804321 2.395725965499878 8.798717498779297 67 104 86
-1.609708547592163 1.4555776119232178 6.900073051452637 40 50 49
1.332084059715271 -0.03828834742307663 8.945775985717773 41 45 46
0.45068323612213135 -2.8403966426849365 7.650418758392334 118 133 128
-0.5728898048400879 1.853259563446045 8.611346244812012 40 50 49
0.9468409419059753 -2.0410165786743164 8.974322319030762 156 147 138
-0.600906491279602 -0.20560969412326813 8.568696975708008 93 117 143
1.7083723545074463 1.0559189319610596 9.454764366149902 108 132 170
1.6760013103485107 -0.06239832565188408 9.036325454711914 220 234 221
-2.54319429397583 -0.6444506645202637 6.2631120681762695 206 221 218
0.014073840342462063 -0.8192610144615173 8.737154960632324 220 233 216
-1.3975074291229248 1.2843892574310303 7.597131729125977 180 179 158
0.7241774201393127 0.6872709393501282 8.777693748474121 162 157 127
0.008160309866070747 -1.1056462526321411 8.004929542541504 235 248 228
0.3216196596622467 1.6773872375488281 7.534143924713135 37 49 65
-3.8189098834991455 2.346513509750366 6.723516464233398 110 133 167
0.007863730192184448 -0.3089013397693634 8.952940940856934 95 108 117
-0.17869804799556732 1.7459386587142944 7.735092639923096 61 56 50
-0.7895714044570923 1.5626344680786133 7.9429931640625 150 165 170
-2.6148252487182617 2.6621644496917725 4.819326877593994 70 68 118
1.6220226287841797 1.8948981761932373 7.806882858276367 113 158 135
0.0018472408410161734 1.7736680507659912 6.861332416534424 130 126 141
-1.8768326044082642 1.8909884691238403 7.659914970397949 78 75 84
2.661559820175171 -0.8182453513145447 8.38737678527832 210 212 199
1.5755212306976318 -0.556831955909729 7.215487480163574 173 182 165
-0.9339594841003418 0.9349139928817749 7.954744815826416 172 180 216
-0.3657360076904297 -0.2629474997520447 10.416357040405273 218 231 214
0.14512601494789124 0.183944970369339 6.571386814117432 178 176 163
-0.5788571238517761 -2.2066142559051514 10.504046440124512 190 175 168
0.1930338740348816 0.68278968334198 9.254308700561523 189 192 181
-0.48548489809036255 2.8595688343048096 5.742593765258789 81 99 147
-1.6335501670837402 0.38844025135040283 8.36998176574707 169 185 184
0.1147397831082344 2.3616626262664795 8.006711959838867 68 68 68
-1.8439191579818726 1.3954404592514038 7.31138801574707 29 46 56
-0.5908859372138977 1.4510773420333862 5.734926223754883 109 128 126
-0.8514683246612549 -0.1384011209011078 6.559652328491211 59 69 61
0.6554195284843445 0.5213444828987122 8.436634063720703 188 197 176
0.7567076683044434 -1.268247127532959 7.539651870727539 126 140 140
-1.4429829120635986 -0.5731980800628662 8.394250869750977 187 191 177
-0.8480870127677917 0.9987559914588928 6.468090057373047 87 102 109
-0.0909237265586853 -0.12211927771568298 9.346170425415039 156 171 164
-1.9241689443588257 2.6582489013671875 9.06626033782959 49 47 48
-2.855001926422119 2.0025596618652344 8.777795791625977 104 114 126
2.052438497543335 -0.8384705185890198 6.245321750640869 84 64 65
0.9979425072669983 -0.8489483594894409 9.4407377243042 159 173 158
1.6265473365783691 0.10024410486221313 8.437952995300293 50 56 68
0.7408527731895447 1.5538735389709473 8.386584281921387 89 108 151
-0.1942489743232727 0.8987371921539307 8.272942543029785 228 245 239
0.3203694522380829 3.092576503753662 8.801796913146973 65 63 128
0.7363866567611694 -1.9889423847198486 8.47352123260498 112 129 123
1.5313081741333008 -0.8232009410858154 10.303065299987793 89 72 80
0.4563610255718231 0.8537849187850952 9.47691535949707 95 107 103
-1.0631855726242065 1.4392492771148682 7.874639987945557 108 94 107
-0.40617793798446655 0.5112046003341675 7.738010883331299 122 149 168
1.295327067375183 -1.3350657224655151 9.409503936767578 42 52 53
-0.655925452709198 3.2845571041107178 5.291492462158203 99 101 113
-1.718902349472046 1.5431073904037476 7.581208229064941 168 175 168
1.2052621841430664 0.6971026659011841 7.362184047698975 33 37 38
0.9015964269638062 -0.7840911149978638 9.085864067077637 67 69 66
1.5930445194244385 -0.1450364589691162 7.850346565246582 94 122 143
-0.9282264113426208 -1.6587879657745361 7.21469783782959 170 178 167
-0.47041231393814087 1.2042350769042969 7.307040214538574 29 43 70
-0.027170278131961823 -1.1163887977600098 9.124796867370605 112 104 115
-0.09321585297584534 3.030764579772949 8.609475135803223 19 23 34
-0.17371566593647003 1.9404295682907104 7.445999622344971 111 127 140
2.2914562225341797 0.6655883193016052 8.53819751739502 110 137 148
-3.0552515983581543 1.5726152658462524 6.32505464553833 20 37 57
1.6869603395462036 -0.7050867080688477 8.168024063110352 132 158 185
-0.8957628607749939 1.6784306764602661 7.814833164215088 123 118 138
-0.925740659236908 -0.2897600531578064 8.71677017211914 214 237 227
-1.8077518939971924 1.1532500982284546 6.300464153289795 175 168 184
-0.5771787762641907 -1.389140009880066 9.462042808532715 63 61 64
1.515233039855957 -0.7453141212463379 9.059968948364258 147 171 181
0.983232855796814 -0.1073039099574089 8.707051277160645 62 77 84
0.8699003458023071 0.9157764315605164 8.619691848754883 63 54 59
-1.7953945398330688 2.260481595993042 8.55163860321045 87 93 89
0.15055036544799805 -1.0211509466171265 8.997547149658203 71 59 61
-0.7821279764175415 2.524754047393799 8.087614059448242 109 139 175
-2.4015767574310303 1.689022183418274 7.694377422332764 160 175 170
0.3567486107349396 0.15312375128269196 9.651087760925293 203 188 185
-0.94576096534729 -0.25780078768730164 8.773401260375977 121 122 108
-1.1059893369674683 0.07010724395513535 9.046159744262695 73 74 76
-0.3525179922580719 1.957050085067749 8.734561920166016 176 184 163
1.4555041790008545 0.6840606927871704 9.055229187011719 82 82 84
0.8994871973991394 -0.42801740765571594 9.826736450195312 103 103 91
-2.4940779209136963 1.9394389390945435 5.627192974090576 52 59 69
-0.8616708517074585 0.1634870320558548 8.23755168914795 102 118 115
-2.375128984451294 2.024834632873535 7.515148162841797 53 52 58
-2.336059331893921 4.027066230773926 8.26285457611084 120 150 184
1.4262022972106934 0.5507993102073669 7.72999382019043 210 227 219
1.9941916465759277 0.0863262265920639 7.795424461364746 104 121 113
-0.7466135621070862 0.7805678844451904 7.510659217834473 134 135 127
-0.4669501483440399 0.5261515974998474 7.689496040344238 166 190 190
0.20576657354831696 2.4497547149658203 6.1508331298828125 23 35 75
-1.7758089303970337 1.5895355939865112 9.346192359924316 143 158 163
1.3123700618743896 2.135958671569824 9.414725303649902 189 195 193
-0.34757912158966064 1.5904494524002075 7.225563049316406 117 132 127
-1.5327825546264648 -0.6463878750801086 8.807510375976562 166 174 176
0.7460002899169922 0.07722873985767365 8.92193603515625 41 45 80
0.03168904408812523 -0.40803253650665283 9.538084983825684 78 76 77
-0.7156453728675842 0.6223236918449402 7.903033256530762 120 136 125
-0.3682169020175934 1.2833114862442017 6.4716877937316895 135 126 155
0.8708672523498535 1.6083340644836426 8.161551475524902 61 46 65
0.593646764755249 0.9561260938644409 8.796353340148926 118 139 132
0.09666409343481064 1.4414198398590088 7.856668949127197 128 119 114
0.41727063059806824 0.3339379131793976 7.328458786010742 176 186 162
0.18841062486171722 0.179868683218956 10.450679779052734 190 204 191
0.7625605463981628 -2.3698484897613525 9.17796802520752 113 97 97
0.8265506625175476 -2.286501169204712 8.005638122558594 98 117 113
-0.9136136174201965 1.285671353340149 6.979352951049805 143 156 149
0.09295155853033066 1.298530101776123 7.8703460693359375 174 197 187
-0.41348955035209656 0.1792835146188736 8.655951499938965 178 198 186
-0.9731906056404114 1.8890225887298584 7.548614978790283 20 17 24
0.24324074387550354 2.45706844329834 7.2960524559021 81 92 114
-0.4337075352668762 -1.9401264190673828 7.7012763023376465 43 54 50
0.09004955738782883 3.9036428928375244 7.423669815063477 44 45 50
-0.07312647253274918 -0.027864910662174225 8.88498306274414 168 170 159
-0.6070941686630249 -0.3534400165081024 7.773897647857666 51 44 52
-0.06359764188528061 3.3089427947998047 6.9389262199401855 67 78 124
0.8769787549972534 -1.8772225379943848 7.453115940093994 151 155 154
1.7983269691467285 2.26764178276062 6.8138203620910645 134 135 127
-0.17279426753520966 -0.04830952733755112 9.466496467590332 194 210 200
0.38818925619125366 2.6443746089935303 8.146903038024902 153 167 152
-0.866840124130249 -1.0968799591064453 8.763227462768555 227 240 233
0.5641037821769714 1.151577115058899 8.44880485534668 116 126 128
1.7891087532043457 0.14534027874469757 10.239609718322754 129 139 140
-0.4813534915447235 -0.29352033138275146 10.448880195617676 143 151 153
-1.1449424028396606 -0.22375914454460144 10.431756973266602 168 152 136
1.0105414390563965 -0.8524378538131714 7.869644641876221 197 207 206
-0.4540127217769623 -0.7940443158149719 8.222856521606445 176 192 182
0.49180278182029724 1.3759543895721436 6.969039440155029 158 169 165
-0.9323456287384033 -0.8633829355239868 8.627239227294922 181 181 169
-2.7744827270507812 0.07220381498336792 7.714364528656006 120 118 139
-0.11774025112390518 0.786028265953064 8.579106330871582 183 195 217
-2.63163423538208 -1.342745065689087 9.61185073852539 124 111 118
-3.492341995239258 2.192939281463623 8.912871360778809 168 177 182
-1.2831978797912598 -1.469096064567566 7.512814044952393 137 157 158
-1.6410173177719116 0.6280987858772278 8.54902458190918 32 40 61
-0.9063326716423035 -0.23268432915210724 7.268074035644531 153 169 159
0.3431894779205322 -1.17021906375885 6.0817084312438965 91 117 132
-0.7744392156600952 1.8920860290527344 8.864788055419922 138 121 129
-1.973957896232605 -0.14579284191131592 7.881261825561523 62 63 58
-0.4586735665798187 1.4797078371047974 9.059931755065918 67 71 82
-1.438783884048462 4.087312698364258 9.262267112731934 57 55 56
1.2017165422439575 -2.3852837085723877 9.158373832702637 123 115 112
0.31342238187789917 0.7455006241798401 7.973629474639893 149 155 151
-0.631763756275177 1.2993580102920532 8.271238327026367 50 53 58
1.782274842262268 -1.5702606439590454 9.58849048614502 166 154 140
-0.1638549417257309 -0.24014899134635925 8.382589340209961 188 197 176
0.7770451903343201 -1.463629961013794 8.325655937194824 228 241 232
0.8011677861213684 -1.356710433959961 10.151854515075684 176 168 165
-3.2043089866638184 1.5198501348495483 8.215535163879395 138 126 148
-0.9775326251983643 2.1753392219543457 7.4430084228515625 60 94 121
-0.7195305228233337 0.22507204115390778 9.183060646057129 155 174 168
-1.6456842422485352 0.8849345445632935 8.276176452636719 88 105 113
-0.030804427340626717 2.977982521057129 6.302143573760986 87 102 109
0.8407636284828186 -0.10634690523147583 8.044098854064941 65 70 73
-0.423937052488327 0.33770671486854553 10.157448768615723 124 138 125
0.3636097311973572 0.44822973012924194 10.265936851501465 90 88 75
-0.6921493411064148 2.0231363773345947 7.287376880645752 141 132 159
-0.6706572771072388 1.5773587226867676 8.489930152893066 51 57 55
-1.0494877099990845 4.013518810272217 8.912543296813965 164 176 190
0.47987887263298035 -1.0464341640472412 9.09154987335205 163 170 162
0.019043713808059692 0.15358445048332214 8.175569534301758 152 164 160
-0.9189649820327759 -1.154868721961975 9.543370246887207 115 106 107
-2.6419410705566406 1.4906399250030518 7.9919538497924805 43 51 64
1.3479068279266357 1.2724443674087524 7.2512431144714355 64 74 86
-0.18280674517154694 2.818049669265747 8.621485710144043 166 174 176
1.251312255859375 1.7551584243774414 8.39793872833252 103 117 120
-0.8089418411254883 -1.015014410018921 9.173449516296387 90 81 84
-0.8959105610847473 0.38920852541923523 7.318362712860107 153 168 197
0.3981734812259674 1.4419224262237549 7.218204975128174 153 169 185
1.5861356258392334 0.18806549906730652 5.672341823577881 44 53 60
-2.3188769817352295 -3.0100197792053223 10.689197540283203 238 250 246
-1.0559970140457153 -0.35483455657958984 9.95641040802002 228 245 239
1.5120738744735718 1.5042681694030762 6.565639495849609 142 145 126
-1.1258617639541626 1.3708083629608154 7.155915260314941 108 142 167
0.6934900283813477 1.3464305400848389 8.13253116607666 59 50 53
-0.6431744694709778 -0.1748218983411789 8.772551536560059 101 111 102
-1.1300251483917236 3.443627119064331 7.395651340484619 32 40 51
-1.9848424196243286 1.8366410732269287 7.383325576782227 130 156 181
-1.4944243431091309 0.9980661869049072 6.984432697296143 122 96 105
0.03406171873211861 0.764251172542572 7.338001251220703 126 138 136
0.23828153312206268 0.7054033279418945 9.828021049499512 123 119 110
1.7879290580749512 -0.02566440775990486 8.00745964050293 152 176 178
-0.8349612951278687 -0.9991406202316284 8.273953437805176 66 52 49
-0.4726879894733429 0.21729642152786255 6.707123279571533 171 184 177
-0.20622959733009338 3.1982903480529785 7.300758361816406 44 61 91
-1.3162195682525635 2.131028652191162 7.639690399169922 28 38 39
1.3954267501831055 2.805267095565796 9.814264297485352 135 131 120
-1.8368453979492188 0.3789847791194916 9.782510757446289 128 127 123
0.007701441179960966 0.21385563910007477 7.653383255004883 133 163 199
-0.46746891736984253 0.14055295288562775 10.299675941467285 99 78 87
0.8489579558372498 0.3578237295150757 7.125636100769043 61 68 94
-2.593581438064575 0.9277676939964294 7.027497291564941 170 174 157
0.8186320066452026 0.9223793148994446 7.867677688598633 70 68 89
0.4296528995037079 -0.04268289729952812 9.449862480163574 107 129 126
-0.2124718576669693 0.6068859696388245 7.727700233459473 118 143 150
-1.7268128395080566 -0.5731393098831177 6.9478888511657715 151 162 146
0.6269616484642029 1.2468174695968628 9.57430362701416 136 114 103
0.04037481173872948 0.37477797269821167 8.468050956726074 141 158 148
0.35890960693359375 1.0494886636734009 6.464406967163086 114 102 122
-0.5224066376686096 -0.09040875732898712 9.857288360595703 200 212 198
-1.5505419969558716 1.0145007371902466 6.595687389373779 228 244 244
0.154500812292099 -1.7663365602493286 9.036567687988281 112 102 111
2.0483903884887695 -1.0922285318374634 9.429134368896484 242 253 249
-2.5128936767578125 1.1402497291564941 7.835071563720703 90 100 91
0.993669331073761 1.6142860651016235 7.763861179351807 140 159 174
-0.9565818309783936 2.9402880668640137 7.988226413726807 164 153 185
-0.5371911525726318 -0.12227046489715576 8.5577974319458 87 71 72
1.3357317447662354 1.9466025829315186 5.456383228302002 55 57 82
-1.8108108043670654 1.5244628190994263 9.19509506225586 55 56 58
-0.4627264142036438 1.3656243085861206 7.538102626800537 130 123 107
0.6879852414131165 0.7081015706062317 9.871194839477539 195 212 204
-0.18803825974464417 1.7259902954101562 8.414794921875 131 115 141
-1.0638158321380615 -0.7201601266860962 8.821403503417969 182 194 174
-2.1983957290649414 -0.1881823092699051 8.573870658874512 197 179 177
-0.06442383676767349 0.6908220648765564 6.483839988708496 30 32 27
-0.5074713826179504 1.4492360353469849 6.464354991912842 83 71 75
0.04714786633849144 1.3143185377120972 7.686617374420166 202 219 209
1.8289283514022827 -1.2381935119628906 8.987114906311035 188 198 189
0.03568725660443306 0.8122371435165405 7.981568336486816 60 60 58
0.2621718645095825 -1.1816328763961792 9.226052284240723 148 161 151
-1.1507290601730347 -0.8415700197219849 6.548924446105957 168 189 194
-0.1627591997385025 -0.973411500453949 8.506379127502441 48 36 38
-1.0377082824707031 2.120546340942383 7.449063777923584 65 55 108
-0.3928711712360382 2.1268393993377686 8.640481948852539 184 197 179
-0.11448672413825989 1.2518788576126099 7.399451732635498 178 187 182
-1.4031767845153809 0.5061112642288208 6.388306617736816 143 127 101
-1.4144887924194336 0.016223588958382607 6.3328447341918945 128 163 185
2.137216806411743 -2.709742784500122 6.95788049697876 139 145 145
0.7849934697151184 -0.7969363331794739 9.35155200958252 84 68 79
-1.0127389430999756 1.433814525604248 6.668681621551514 23 35 75
-2.7286651134490967 1.0724090337753296 8.61994743347168 144 153 160
-2.1284916400909424 3.9168038368225098 6.412173748016357 136 171 191
-0.25579941272735596 1.3301119804382324 8.953228950500488 69 65 79
1.5654441118240356 0.040931910276412964 7.993399143218994 36 43 85
-0.7387723922729492 1.341394305229187 7.0316243171691895 66 86 123
-1.722338318824768 2.5505807399749756 6.720162391662598 51 59 121
-1.0700252056121826 1.0849769115447998 8.592683792114258 152 163 155
-1.0506635904312134 0.20789466798305511 7.06627893447876 129 139 140
1.7564209699630737 -0.053387682884931564 10.666728973388672 174 163 143
-2.857870578765869 -0.004230922088027 7.884533405303955 75 101 124
0.7029505372047424 -1.8745627403259277 8.834522247314453 107 129 126
-2.0271096229553223 -1.740891456604004 8.323938369750977 229 241 239
2.2050421237945557 0.8398534059524536 8.665843963623047 203 222 220
0.019532762467861176 -1.397608757019043 10.041250228881836 116 102 101
0.39639580249786377 -0.5307396054267883 9.961950302124023 119 102 110
-3.358248233795166 3.1606101989746094 9.534317970275879 75 84 89
0.004093513358384371 0.06416243314743042 9.977335929870605 43 80 63
-2.2116000652313232 -0.8590371012687683 8.62630558013916 174 164 155
-1.0007381439208984 1.964425802230835 7.4303789138793945 70 94 118
-0.5029115080833435 -1.0983388423919678 8.639145851135254 92 103 97
1.5711032152175903 -0.03829727694392204 7.030909061431885 76 80 83
-0.024721559137105942 2.3375637531280518 6.228511810302734 83 81 121
1.7515114545822144 -1.28101646900177 10.140521049499512 87 112 116
-0.9643862247467041 2.6676061153411865 7.506626129150391 141 151 163
-1.8440378904342651 2.5266363620758057 7.175666332244873 151 133 147
-0.4237830638885498 0.634945273399353 8.702234268188477 107 98 89
0.05621614679694176 -1.5903328657150269 9.46713638305664 121 105 105
-2.552886724472046 0.05539514496922493 9.512534141540527 99 113 126
0.6696568727493286 0.8796940445899963 8.938312530517578 157 165 168
-1.4072682857513428 2.929708242416382 7.818514347076416 136 139 130
0.5966926217079163 2.148944616317749 7.759823799133301 149 155 151
0.17109414935112 0.6005969643592834 8.469051361083984 152 164 160
0.12699539959430695 3.171123743057251 6.201429843902588 135 133 144
-1.5079150199890137 1.4511125087738037 8.2235107421875 58 59 79
-2.1393661499023438 -0.6930872797966003 10.179856300354004 175 191 188
-0.09959197789430618 0.634758472442627 7.996833324432373 236 251 244
-3.0641233921051025 -0.38284361362457275 7.320505619049072 162 165 180
-0.0015546814538538456 0.33874568343162537 9.545661926269531 79 78 83
-0.579195499420166 1.7635987997055054 7.781549453735352 59 57 97
-0.13620677590370178 -1.7279353141784668 9.87173843383789 155 172 166
-2.8094093799591064 2.3798818588256836 9.333434104919434 57 58 60
-1.6567820310592651 -1.7953299283981323 8.834399223327637 93 90 85
0.4689231514930725 2.2702300548553467 5.418817043304443 95 83 133
-0.15330979228019714 2.974365711212158 8.080254554748535 77 84 66
0.9115235805511475 2.0768580436706543 8.449371337890625 69 54 57
