ply
format ascii 1.0
element vertex 706
property float x
property float y
property float z
property uchar red
property uchar green
property uchar blue
end_header
-3.086561441421509 1.629866361618042 7.607768535614014 172 134 113
-0.5705632567405701 -1.9705314636230469 6.093601226806641 9 219 110
-0.6615357995033264 -1.8753191232681274 6.0038580894470215 11 225 137
4.276644706726074 1.1595509052276611 7.410685062408447 142 107 88
-1.2476757764816284 -1.1829757690429688 6.032872200012207 119 32 40
-2.501190662384033 2.264793872833252 7.032408237457275 206 178 154
-1.2349623441696167 -2.2581520080566406 6.38366174697876 244 246 83
-3.4579241275787354 1.7980777025222778 7.55007266998291 180 142 119
-0.8469995260238647 1.4503703117370605 7.559391975402832 111 83 62
4.679625988006592 1.9159133434295654 6.809248924255371 188 157 139
-2.5290536880493164 0.8914868831634521 7.660126686096191 206 130 104
1.3396003246307373 -0.137473464012146 6.710838317871094 128 56 34
-0.9036044478416443 -1.2607793807983398 5.972930908203125 61 0 2
2.2149808406829834 1.448451042175293 7.449750900268555 144 98 72
1.2611463069915771 -2.122053623199463 6.133868217468262 141 174 193
0.8410011529922485 -1.4398727416992188 5.833130836486816 5 151 42
-1.626327633857727 -1.150567650794983 6.040431499481201 117 21 25
2.8240206241607666 -2.0618484020233154 6.036702632904053 84 106 130
-0.48354750871658325 -2.0010080337524414 6.10617208480835 167 255 205
2.3191919326782227 -1.2239036560058594 5.940098285675049 7 14 6
2.8075144290924072 1.5903326272964478 7.121169090270996 182 155 138
2.707886219024658 -2.3065614700317383 6.282318592071533 88 125 151
-0.9360675811767578 -2.4949445724487305 6.631430625915527 226 169 139
2.296048402786255 -1.3142368793487549 5.882544040679932 164 184 157
2.8183374404907227 -1.300622582435608 5.889223098754883 39 48 29
-0.37884756922721863 2.071335554122925 7.0346479415893555 103 79 69
-4.703574180603027 1.551350474357605 7.85591459274292 183 149 124
2.191164016723633 -1.2969326972961426 5.867999076843262 12 39 24
2.0000648498535156 2.6290102005004883 6.386223793029785 75 44 26
-0.9036044478416443 -1.2607793807983398 5.972930908203125 61 0 2
-0.6812423467636108 -1.9961256980895996 6.111301898956299 188 252 217
1.2743394374847412 -2.383321523666382 6.387698650360107 127 158 189
1.4001103639602661 -2.0888404846191406 6.0855607986450195 201 237 249
1.0200080871582031 -2.3166704177856445 6.339725017547607 200 230 240
-1.1995172500610352 -1.9946084022521973 6.135746479034424 204 254 227
-1.190016508102417 1.7445220947265625 7.405385971069336 181 146 124
-1.729369044303894 3.319408655166626 6.018157958984375 87 73 64
2.832935333251953 0.6552562713623047 7.274503231048584 165 101 29
-1.2696259021759033 -2.244582176208496 6.375828742980957 34 54 42
2.247239589691162 2.9023125171661377 6.0968427658081055 137 101 79
0.5692369937896729 3.2762136459350586 5.870141506195068 191 155 133
-0.8979979157447815 -1.2553155422210693 5.993441581726074 110 18 21
2.7405014038085938 -1.4671295881271362 5.776535987854004 189 202 176
-0.8711591958999634 -1.957055926322937 6.0883893966674805 173 250 194
-0.5890565514564514 -2.602015733718872 6.7253499031066895 111 94 0
2.4726245403289795 2.8351168632507324 6.142936706542969 196 163 148
3.8708651065826416 1.963130235671997 6.815629959106445 152 123 105
3.4365737438201904 2.117382287979126 6.722555637359619 180 147 130
1.3063961267471313 -2.110123634338379 6.112683296203613 203 239 255
2.4468891620635986 -1.4032557010650635 5.813499927520752 186 200 174
0.49949049949645996 -2.5362930297851562 6.603000164031982 185 223 200
-2.555983066558838 -1.7695714235305786 5.982798099517822 111 98 82
1.9235388040542603 2.033747911453247 6.926089286804199 193 156 127
3.051953077316284 1.229364275932312 7.502763748168945 191 165 148
-0.8520049452781677 3.323106288909912 5.9644622802734375 86 57 43
3.236945152282715 3.179884195327759 5.78706693649292 54 41 35
4.629267692565918 1.307765245437622 7.27945613861084 175 141 116
1.2806223630905151 1.6447134017944336 7.301506519317627 175 133 108
2.0794644355773926 -1.349082112312317 5.875553131103516 186 198 186
-1.2624573707580566 -1.2134027481079102 6.002280235290527 86 7 10
4.529444694519043 1.4366908073425293 7.146332740783691 189 157 134
4.461698055267334 1.7058907747268677 6.970849514007568 204 182 159
-1.1634595394134521 -1.1403944492340088 6.062038898468018 243 220 228
2.0263748168945312 -1.2846713066101074 5.884480953216553 14 42 30
2.951420545578003 2.876596689224243 6.091190814971924 153 121 100
-1.9804726839065552 1.8004719018936157 7.37065315246582 165 129 107
-1.0733596086502075 2.9149510860443115 6.302131652832031 179 142 116
-0.09075383841991425 2.279862880706787 6.836954593658447 188 157 136
-0.10297542810440063 2.2537035942077637 6.846011638641357 152 121 101
1.3334332704544067 1.4864052534103394 7.372939586639404 187 150 124
-1.0248427391052246 -1.9749034643173218 6.106101036071777 167 255 202
-0.6825927495956421 2.6662838459014893 6.51063871383667 191 153 130
1.2108920812606812 3.1926519870758057 5.910157680511475 203 166 139
0.06736590713262558 -0.057152025401592255 6.824501991271973 46 178 59
2.6961276531219482 -2.353883981704712 6.315269470214844 103 144 166
-0.8493120670318604 1.6947463750839233 7.401398658752441 199 167 144
2.800417423248291 -1.3352718353271484 5.858201503753662 13 29 3
-0.09701904654502869 0.6089594960212708 7.186402320861816 196 124 74
-1.1667264699935913 -2.267188787460327 6.397837162017822 239 224 133
-0.4376216232776642 -2.001694917678833 6.10338020324707 194 250 223
-5.486930847167969 1.7442740201950073 7.860959053039551 134 96 73
0.051766492426395416 3.2473952770233154 5.969089031219482 120 83 57
-0.3617438077926636 -1.8558050394058228 5.967470645904541 195 252 217
2.0948891639709473 -1.2327220439910889 5.928006649017334 14 40 27
-2.710893392562866 1.7482918500900269 7.480760097503662 197 161 135
-1.6579675674438477 2.5405285358428955 6.729110240936279 188 150 127
-4.736154079437256 1.3547048568725586 8.042181015014648 186 152 124
0.6201409697532654 -2.160628080368042 6.1991496086120605 174 209 239
-2.640270948410034 -1.2168605327606201 6.055201530456543 102 255 184
-1.5766116380691528 2.4660284519195557 6.763376235961914 181 149 126
0.5224361419677734 2.364415168762207 6.718986511230469 159 130 116
-0.2062850147485733 -2.021395683288574 6.1109299659729 194 255 224
-0.9952665567398071 3.321861743927002 5.9511613845825195 90 65 45
-0.9828224182128906 -1.1995021104812622 6.023341655731201 92 14 14
2.238499164581299 -1.1607166528701782 5.96579122543335 7 38 22
0.9647009968757629 -0.5461221933364868 6.44372034072876 25 34 41
-1.1837111711502075 -1.9470373392105103 6.090530872344971 194 255 221
4.1514410972595215 1.9111769199371338 6.836278915405273 97 73 63
-2.1058099269866943 3.1799838542938232 6.178736209869385 170 138 123
1.1741271018981934 3.200902223587036 5.910101890563965 217 179 158
-1.2642197608947754 3.1655654907226562 6.098627090454102 159 124 105
0.1681772768497467 3.246096134185791 5.927596092224121 194 162 139
2.1816186904907227 -1.2338358163833618 5.944441318511963 56 67 61
2.2885496616363525 0.23836328089237213 7.00714635848999 187 122 32
2.672952651977539 -1.4416234493255615 5.793758392333984 17 45 33
0.35954493284225464 1.5127209424972534 7.451578140258789 184 143 111
1.3037233352661133 -2.0865983963012695 6.094137191772461 133 159 174
-1.6401408910751343 -2.2447164058685303 6.388689994812012 236 235 56
0.6079882979393005 -2.104936122894287 6.1387939453125 99 160 225
1.7532883882522583 1.866660714149475 7.086480140686035 99 61 40
-0.34024325013160706 2.3906209468841553 6.758272171020508 162 124 103
-1.2784632444381714 -1.2966257333755493 5.970067024230957 169 210 238
-0.9522147178649902 -1.2015212774276733 6.025481700897217 233 221 235
-3.7322945594787598 1.4589265584945679 7.835908889770508 173 133 108
2.2569448947906494 -1.1755932569503784 5.955972671508789 187 195 172
0.8869043588638306 2.650371789932251 6.443986892700195 83 57 44
-1.463036298751831 2.778266191482544 6.474549293518066 187 151 129
1.4489772319793701 -2.0981924533843994 6.094307899475098 203 237 249
-1.8522108793258667 -1.1103005409240723 6.1031293869018555 53 2 7
-0.25559863448143005 -1.9968534708023071 6.089231967926025 204 248 221
-0.6825927495956421 2.6662838459014893 6.51063871383667 191 153 130
0.14055225253105164 1.7413520812988281 7.281449794769287 211 176 156
3.8458991050720215 2.0744056701660156 6.731895446777344 138 103 84
-0.6863979697227478 2.9056789875030518 6.325957298278809 131 93 72
-0.23561470210552216 -1.9052804708480835 6.003768444061279 198 252 228
1.9680867195129395 -1.5535060167312622 5.731200218200684 138 21 29
-3.6408426761627197 1.1366053819656372 8.073362350463867 192 160 135
-1.3749428987503052 -1.946678876876831 6.100884914398193 10 159 77
-0.17339256405830383 2.1750376224517822 6.991307258605957 122 98 86
-1.3697762489318848 -1.9729764461517334 6.126290321350098 1 194 111
2.6682686805725098 -1.2949098348617554 5.887670993804932 187 202 161
1.3922977447509766 2.5372955799102783 6.4864888191223145 102 78 68
-1.8522108793258667 -1.1103005409240723 6.1031293869018555 53 2 7
1.8277370929718018 -2.2389767169952393 6.222602367401123 196 195 174
0.4014818072319031 2.354146957397461 6.741034030914307 196 165 147
-0.9928439855575562 -1.1857138872146606 6.032052993774414 182 200 224
-0.6694222688674927 2.5230674743652344 6.65305233001709 198 160 137
-0.4696992337703705 -1.0690016746520996 6.1107025146484375 163 28 34
-2.6470179557800293 -1.2808390855789185 6.016024589538574 88 246 172
-2.7467453479766846 1.9625836610794067 7.3192620277404785 185 149 127
2.3714303970336914 1.657029390335083 7.216804504394531 176 132 103
-1.249047040939331 -1.0812840461730957 6.100615501403809 163 192 224
-1.2274926900863647 2.035494327545166 7.122861862182617 202 171 150
-0.7346316576004028 -1.8623957633972168 6.002590656280518 85 198 142
0.7136270999908447 -2.077457904815674 6.131150245666504 168 180 192
-2.2493441104888916 1.2121779918670654 7.863280296325684 152 114 91
-1.6238417625427246 -2.1913859844207764 6.343587398529053 42 50 39
-0.3656083941459656 -2.0047683715820312 6.101043701171875 202 252 225
0.09221822768449783 -1.0486059188842773 6.093488693237305 225 90 96
0.6401926279067993 -1.9787776470184326 6.020143508911133 76 137 184
-1.0079044103622437 -2.4300060272216797 6.528614521026611 115 140 110
3.13967227935791 2.7673256397247314 6.182701587677002 184 153 125
5.46073579788208 0.4270656108856201 7.882934093475342 134 108 95
-2.1966824531555176 -2.306614637374878 6.497445106506348 210 198 54
-1.7171589136123657 1.6789449453353882 7.4427103996276855 181 142 113
0.9717710018157959 -2.3791747093200684 6.406595230102539 163 157 141
3.073450803756714 2.4084296226501465 6.50171422958374 110 78 57
2.224525213241577 -1.5998042821884155 5.724135398864746 178 194 184
0.6920415163040161 -2.1851389408111572 6.219229698181152 198 229 250
-1.2873817682266235 -1.9484344720840454 6.0948896408081055 190 253 210
-0.4283260703086853 2.7585926055908203 6.431337356567383 114 76 63
0.6808840036392212 2.7649197578430176 6.3319807052612305 80 42 21
1.0983383655548096 2.2746741771698 6.834566116333008 176 145 125
-1.1745222806930542 -2.3360393047332764 6.475485801696777 244 248 111
2.212999105453491 1.823194146156311 7.065514087677002 111 73 52
-1.5790417194366455 2.727976083755493 6.527587890625 180 148 127
-2.234818696975708 1.9021759033203125 7.317119121551514 198 163 141
2.11106538772583 -1.1161786317825317 6.011988162994385 187 201 186
-1.0306316614151 2.8263769149780273 6.391360282897949 153 118 98
0.5705488920211792 -2.210261821746826 6.257120609283447 195 233 254
0.468169242143631 -2.5969951152801514 6.667375087738037 217 247 223
0.8869043588638306 2.650371789932251 6.443986892700195 83 57 44
-1.3750189542770386 -2.3965539932250977 6.529556751251221 234 241 75
-0.744123637676239 -1.850631594657898 5.985050678253174 162 255 199
2.0044338703155518 -2.1686785221099854 6.166921138763428 221 227 165
0.5899049043655396 -2.1511523723602295 6.203889846801758 191 232 250
-0.32980111241340637 3.188105344772339 6.027675151824951 42 19 11
-1.1886619329452515 2.1821377277374268 6.999721527099609 201 173 151
2.8540005683898926 -1.3410497903823853 5.855366230010986 190 203 173
4.189573287963867 2.1307802200317383 6.76995325088501 165 136 118
1.1598080396652222 3.108670711517334 6.018186569213867 175 135 110
0.07170376181602478 2.6338982582092285 6.526568412780762 103 74 58
2.1154842376708984 2.9485585689544678 6.102488994598389 180 148 125
0.5437481999397278 2.780902862548828 6.334968090057373 106 68 47
-0.9497842788696289 -1.2877070903778076 5.9562225341796875 147 227 228
0.9754840731620789 -2.3057610988616943 6.337705135345459 207 154 162
1.8260880708694458 2.87418270111084 6.171080589294434 237 202 180
2.0435373783111572 -2.168375015258789 6.140236854553223 232 208 170
-1.14497971534729 -1.9755401611328125 6.112861633300781 196 254 214
0.8809232711791992 -1.2540167570114136 5.940771579742432 23 15 12
-0.43179386854171753 0.617710292339325 7.355224609375 206 178 81
0.6901248097419739 -2.0140907764434814 6.076578140258789 92 120 132
2.0269112586975098 1.940546989440918 7.03118371963501 106 70 46
3.073450803756714 2.4084296226501465 6.50171422958374 110 78 57
0.10692103207111359 1.7667980194091797 7.229109764099121 174 137 118
0.2019117921590805 2.5714001655578613 6.545968532562256 194 158 136
-1.181800365447998 -1.8483892679214478 6.000319480895996 8 165 50
-0.7313076257705688 2.5218982696533203 6.629953384399414 201 165 141
-0.5818210244178772 2.441222667694092 6.72613000869751 203 173 149
2.18982195854187 -1.2911428213119507 5.8947906494140625 193 211 195
1.4146357774734497 -2.1355409622192383 6.1387505531311035 109 136 145
-1.4646583795547485 -1.1350432634353638 6.819699287414551 118 24 25
2.1398208141326904 -1.4470701217651367 5.783863544464111 121 14 22
0.7407139539718628 -1.4416131973266602 5.839158058166504 154 186 63
-0.9522147178649902 -1.2015212774276733 6.025481700897217 233 221 235
-2.410686492919922 1.6461660861968994 7.536673069000244 199 165 140
1.8039944171905518 -2.061619997024536 5.999718189239502 192 191 170
-1.249047040939331 -1.0812840461730957 6.100615501403809 163 192 224
2.665855884552002 -1.4746906757354736 5.768441677093506 8 34 21
-0.5842208862304688 -1.9950621128082275 6.098121643066406 54 152 91
2.756436347961426 -1.9199213981628418 5.901683807373047 84 115 144
1.0907158851623535 -2.2764487266540527 6.287029266357422 146 209 178
2.8248109817504883 -2.0090444087982178 5.983608245849609 78 97 130
0.11463774740695953 -2.231987237930298 6.3015570640563965 89 104 85
1.7714672088623047 1.2342565059661865 7.5373358726501465 98 60 37
-0.9636570811271667 2.5979111194610596 6.617648124694824 174 136 113
1.1103202104568481 2.091932535171509 6.926922798156738 139 104 85
2.6926143169403076 0.19827421009540558 6.902250289916992 63 139 31
-2.629119634628296 -0.7982679605484009 6.332830905914307 124 0 0
-2.0070879459381104 2.1728694438934326 7.054998397827148 145 104 84
1.3621963262557983 2.4647138118743896 6.534539699554443 141 119 105
2.1514039039611816 -0.2466547191143036 6.697205066680908 68 16 0
-2.8955492973327637 2.083207130432129 7.240147590637207 197 165 140
-2.5565216541290283 -0.428026407957077 6.636920928955078 152 27 31
-2.668713092803955 -1.432548999786377 5.925197601318359 3 159 76
-1.3364462852478027 -1.982348918914795 6.130192279815674 62 166 103
-0.9442413449287415 -1.9783114194869995 6.111003398895264 176 254 206
-2.3954086303710938 -2.0202527046203613 6.231611728668213 227 239 191
3.5612528324127197 1.825500726699829 6.950140476226807 102 74 60
1.9951268434524536 2.8181231021881104 6.200271129608154 169 141 119
2.298438787460327 1.4013986587524414 7.368099212646484 162 116 92
-2.4480130672454834 -1.754177212715149 5.998983860015869 70 79 78
0.3543548285961151 -2.494434118270874 6.568306922912598 212 250 227
1.6048780679702759 3.252405881881714 5.816809177398682 194 159 140
-0.33815798163414 -1.9425668716430664 6.036062240600586 0 221 114
0.6317552328109741 -2.159149169921875 6.201740264892578 50 105 161
-2.1642348766326904 -2.434176445007324 6.607186794281006 235 226 95
1.8835394382476807 -2.1158738136291504 6.097422122955322 206 178 156
2.256957530975342 -1.3024224042892456 5.887672424316406 186 200 177
0.11713825911283493 3.211369276046753 6.002362251281738 59 36 20
-4.703574180603027 1.551350474357605 7.85591459274292 183 149 124
-1.0265681743621826 2.9379489421844482 6.303208351135254 61 33 21
2.45013427734375 -1.3826004266738892 5.817919731140137 9 26 18
1.2370283603668213 2.2928318977355957 6.737635135650635 175 147 125
-2.7426061630249023 1.358616828918457 7.81024694442749 186 146 120
-2.671074390411377 -1.302725911140442 6.011800765991211 0 119 42
-2.8307244777679443 1.9658222198486328 7.227049350738525 180 145 123
-0.0014238671865314245 3.2791333198547363 5.942202091217041 122 87 68
2.5473406314849854 -1.2329732179641724 5.944394588470459 198 217 185
1.7498575448989868 3.0293772220611572 6.071766376495361 143 105 84
-1.640752911567688 2.5092406272888184 6.760390758514404 144 107 81
-0.5910001397132874 -1.9900619983673096 6.107134819030762 164 255 200
0.4455367624759674 1.4162322282791138 7.521584510803223 176 129 101
-0.5382576584815979 -1.9613103866577148 6.074900150299072 195 251 212
-1.522302269935608 2.09263014793396 7.1059980392456055 184 149 127
-3.1052966117858887 1.1361562013626099 7.951775550842285 30 70 36
-1.2025433778762817 -2.22273850440979 6.361444473266602 236 237 58
-0.03676360845565796 2.699932813644409 6.441798686981201 232 198 173
-1.578299641609192 2.39599347114563 6.81352424621582 183 148 128
0.41098806262016296 2.8648695945739746 6.263467788696289 179 145 117
0.9146741032600403 -1.9342825412750244 5.971634387969971 190 231 251
2.5441362857818604 -1.4312593936920166 5.800304412841797 186 195 176
2.185554265975952 -1.6012934446334839 5.7143235206604 206 224 212
0.6597067713737488 -2.149085283279419 6.201308727264404 125 205 254
-0.02904753014445305 2.987135171890259 6.198099136352539 162 127 105
-0.3988523781299591 -1.8546241521835327 5.964155673980713 0 153 65
2.184576988220215 1.9664441347122192 6.941551685333252 168 132 110
2.605228900909424 -1.60674250125885 5.731454849243164 178 196 184
2.7152163982391357 -1.2722980976104736 5.901003837585449 7 17 0
2.851868152618408 1.9177359342575073 6.942394733428955 180 151 137
-1.1919492483139038 -0.9641825556755066 6.167124271392822 169 204 236
-1.0387957096099854 -1.9667582511901855 6.108667850494385 166 255 207
1.62234365940094 3.0248045921325684 6.048919200897217 177 142 120
0.06736590713262558 -0.057152025401592255 6.824501991271973 46 178 59
0.6112169027328491 -2.149414300918579 6.1909260749816895 83 126 181
2.5023486614227295 -1.2139638662338257 5.933843612670898 25 45 34
1.2252817153930664 -2.4490795135498047 6.4584269523620605 122 151 191
0.4070415794849396 2.9359917640686035 6.211964130401611 113 78 59
2.540827989578247 -1.221742033958435 5.950347900390625 1 9 0
2.645569324493408 -1.3717814683914185 5.844092845916748 6 29 21
-0.3656083941459656 -2.0047683715820312 6.101043701171875 202 252 225
3.858147382736206 2.1266589164733887 6.6867995262146 220 190 166
2.707886219024658 -2.3065614700317383 6.282318592071533 88 125 151
-2.3605592250823975 0.6100693345069885 7.476786136627197 25 51 12
0.6401926279067993 -1.9787776470184326 6.020143508911133 76 137 184
-2.370624542236328 2.0041418075561523 7.208626747131348 161 124 98
-0.6999251246452332 -1.985382318496704 6.107514381408691 169 255 201
1.028448224067688 3.147125720977783 5.96851110458374 107 66 46
2.7405014038085938 -1.4671295881271362 5.776535987854004 189 202 176
-0.8330334424972534 2.0709898471832275 7.061280250549316 206 170 146
-0.5429302453994751 -1.8538355827331543 5.9721269607543945 166 255 214
-0.5046008229255676 -1.966252326965332 6.0665998458862305 0 160 71
0.20038756728172302 -2.5545148849487305 6.642992973327637 212 246 230
-1.286548376083374 0.4524695575237274 7.27805757522583 89 190 72
1.844610571861267 1.4537070989608765 7.425883769989014 168 122 98
0.26073288917541504 -2.5771446228027344 6.6543684005737305 145 177 156
0.9545826315879822 -2.2605574131011963 6.280603408813477 194 237 255
3.47839617729187 0.865330696105957 7.817964553833008 120 92 81
-0.7962538599967957 3.015845537185669 6.206468105316162 84 51 36
2.2123055458068848 -1.3081653118133545 5.893997669219971 124 182 158
2.897517681121826 2.4596524238586426 6.458477020263672 84 52 39
1.1479111909866333 2.1494462490081787 6.925670146942139 171 131 106
2.5023486614227295 -1.2139638662338257 5.933843612670898 25 45 34
-1.703228235244751 2.5739974975585938 6.676018714904785 180 145 117
-0.968333899974823 -1.1932158470153809 6.025843143463135 219 167 190
-0.36286208033561707 -1.99056875705719 6.090596675872803 203 248 219
3.9708826541900635 2.9058196544647217 6.012932777404785 180 145 125
-0.2064615935087204 -1.9277839660644531 6.027727127075195 0 221 116
-1.430188775062561 2.690040349960327 6.534026145935059 193 165 141
-2.9153409004211426 1.7015596628189087 7.523828506469727 187 150 124
1.1206399202346802 2.6871697902679443 6.358828067779541 95 69 56
0.1048530787229538 -2.414562702178955 6.459737777709961 109 227 167
1.469361424446106 3.248788595199585 5.840766906738281 177 139 116
0.18736661970615387 2.291196346282959 6.800010681152344 164 135 121
1.2563166618347168 -2.0778141021728516 6.0902485847473145 123 156 173
2.9844350814819336 2.9102389812469482 6.056037425994873 81 52 36
-1.160048246383667 2.7846055030822754 6.4697489738464355 137 101 75
0.9335514903068542 1.1750147342681885 7.570118427276611 155 119 95
0.39202815294265747 2.9126219749450684 6.205023765563965 241 216 196
-0.7210202217102051 -1.9591269493103027 6.078597068786621 185 253 214
-3.6578238010406494 2.2825634479522705 7.091634750366211 197 163 138
-1.5549356937408447 2.543713092803955 6.7106709480285645 144 108 86
1.8438913822174072 -2.0950818061828613 6.070440292358398 203 171 133
0.07153688371181488 3.0535106658935547 6.093652725219727 179 139 114
-1.5556995868682861 1.8312493562698364 7.336075782775879 183 143 118
-0.09075383841991425 2.279862880706787 6.836954593658447 188 157 136
0.26969996094703674 -2.6006040573120117 6.678112506866455 219 240 221
0.5221052169799805 -0.17360499501228333 6.691684722900391 11 156 55
0.7860362529754639 3.1510424613952637 5.990880012512207 85 56 42
0.23422493040561676 2.179882287979126 6.911830425262451 188 163 141
-0.12274442613124847 3.1369714736938477 6.052041530609131 176 141 119
2.6206555366516113 2.9164607524871826 6.047792911529541 166 140 127
-0.7013453841209412 2.895399570465088 6.328513145446777 152 111 91
-1.6126426458358765 2.3267176151275635 6.898595333099365 190 153 127
5.46073579788208 0.4270656108856201 7.882934093475342 134 108 95
0.41735324263572693 -2.6020007133483887 6.674384593963623 201 236 214
1.2366340160369873 -2.4260616302490234 6.441920280456543 125 185 239
-0.26364612579345703 -1.9207401275634766 6.000485420227051 0 219 114
-0.3813265264034271 -1.9914616346359253 6.089116096496582 185 252 201
0.3551253080368042 -2.51086688041687 6.5935821533203125 121 161 135
2.8248109817504883 -2.0090444087982178 5.983608245849609 78 97 130
0.31443408131599426 -2.67879581451416 6.742615222930908 217 239 216
1.2846580743789673 -2.100219488143921 6.0948567390441895 196 239 255
-0.2590585947036743 -1.8611321449279785 5.969782829284668 182 255 223
-0.40194985270500183 -1.9628105163574219 6.067928791046143 196 248 212
0.44847434759140015 -2.5821492671966553 6.651855945587158 132 166 141
0.7279358506202698 2.6223361492156982 6.454586982727051 155 114 96
-2.6392924785614014 -0.9555375576019287 6.25584077835083 0 142 52
-1.1536364555358887 0.8123924732208252 7.644723415374756 201 136 68
1.1784096956253052 -2.0946030616760254 6.0932297706604 195 238 254
0.5348039269447327 -2.552863121032715 6.606255531311035 201 234 205
-0.33815798163414 -1.9425668716430664 6.036062240600586 0 221 114
1.0791590213775635 3.0712783336639404 6.035714626312256 116 75 53
-0.0014238671865314245 3.2791333198547363 5.942202091217041 122 87 68
-0.33024123311042786 3.0030314922332764 6.216446876525879 68 40 28
2.183976173400879 -1.5661870241165161 5.743042469024658 79 89 81
4.81684684753418 1.2821613550186157 7.3385210037231445 177 145 122
-2.1775171756744385 0.6264628767967224 7.422737121582031 14 30 0
0.395818829536438 2.5589351654052734 6.521430015563965 194 159 131
-1.4188153743743896 -1.923981785774231 6.089812755584717 13 193 96
2.178025484085083 -1.3524861335754395 5.860870838165283 97 108 94
3.9725570678710938 2.438743829727173 6.427337169647217 109 77 62
-0.30233627557754517 -2.383183479309082 6.491913795471191 240 216 130
2.6682686805725098 -1.2949098348617554 5.887670993804932 187 202 161
0.3770052194595337 -0.6134126782417297 6.381541728973389 107 64 29
-0.4196701645851135 -2.0217738151550293 6.112133502960205 0 189 106
3.9531102180480957 1.8807634115219116 6.852887153625488 145 115 104
0.9205717444419861 2.8702030181884766 6.245840072631836 222 187 165
-1.373199462890625 -1.9784773588180542 6.118388652801514 18 222 127
2.03641414642334 -1.2341153621673584 5.913729667663574 175 189 166
0.5136497020721436 -2.5436930656433105 6.604026794433594 209 243 218
2.007598638534546 1.861003041267395 7.053235054016113 128 93 74
0.3425600230693817 1.8642035722732544 7.159406661987305 180 146 119
-0.9352225065231323 -1.2989519834518433 5.957613945007324 0 151 74
-1.4555288553237915 3.2903995513916016 6.003435134887695 174 142 117
4.059636116027832 1.9780776500701904 6.777261257171631 191 160 142
-1.014768123626709 -1.9586559534072876 6.079626083374023 4 162 77
-1.7013028860092163 2.0273027420043945 7.227962493896484 181 145 121
2.2208759784698486 0.22482290863990784 6.994272232055664 179 145 48
0.8349537253379822 -2.3929641246795654 6.43038272857666 204 164 115
-1.8332680463790894 0.36857789754867554 7.200709342956543 200 204 119
1.3332785367965698 3.254934310913086 5.867463111877441 229 192 166
-1.7653648853302002 2.1634130477905273 7.047624588012695 182 144 123
-1.7013028860092163 2.0273027420043945 7.227962493896484 181 145 121
1.8499741554260254 -2.1290996074676514 6.09445333480835 224 208 182
1.4340146780014038 1.3362274169921875 7.520646095275879 141 98 79
5.298369407653809 0.48456794023513794 8.074419975280762 149 121 109
-0.8253647685050964 -1.8733876943588257 6.0050835609436035 153 230 188
-0.6160277724266052 -1.9089010953903198 6.021214962005615 11 214 132
0.2795192003250122 -2.521507740020752 6.5890278816223145 102 140 117
-2.2847018241882324 -1.8619227409362793 6.077484130859375 101 176 199
2.9186809062957764 -1.3223540782928467 5.866828918457031 13 27 0
-1.475264310836792 2.2082412242889404 7.025693416595459 196 161 139
1.2617441415786743 -2.3557167053222656 6.36634635925293 148 185 203
-3.908092975616455 2.5335004329681396 6.921256065368652 71 51 42
0.7438517212867737 -2.1631410121917725 6.19648551940918 79 127 173
-2.1775171756744385 0.6264628767967224 7.422737121582031 14 30 0
4.4078779220581055 1.419579029083252 7.157430171966553 190 162 141
-5.510046482086182 -0.09216194599866867 9.412769317626953 183 143 117
0.39274677634239197 -2.5634639263153076 6.620082855224609 217 245 222
2.712266683578491 1.5189590454101562 7.286254405975342 144 112 99
0.428879052400589 -2.602980375289917 6.673383712768555 93 131 106
-0.551913857460022 -1.960017204284668 6.070291042327881 0 149 56
2.699103593826294 -1.4176636934280396 5.804196357727051 185 198 181
-0.3017960786819458 -2.384880304336548 6.497439861297607 241 213 148
-0.24635733664035797 2.0046424865722656 7.052839756011963 205 178 157
3.8257198333740234 2.0376288890838623 6.808453559875488 160 128 105
0.8353988528251648 -1.43922758102417 5.851912021636963 170 189 64
0.34135276079177856 -2.5937888622283936 6.663533687591553 131 165 138
0.7196663618087769 -2.0588974952697754 6.090911865234375 161 179 219
0.9208992719650269 -2.3531360626220703 6.371717929840088 176 168 155
-2.5334250926971436 -1.726831078529358 5.965835094451904 240 223 151
1.273432970046997 -2.0905473232269287 6.105562210083008 183 228 247
-1.0984628200531006 -2.431943416595459 6.5717997550964355 243 246 103
-0.5983672142028809 -1.9778046607971191 6.08974552154541 17 163 78
-2.06899356842041 1.9732673168182373 7.236688137054443 195 163 142
-0.997998058795929 2.22566819190979 6.927245616912842 213 177 153
-1.7552365064620972 -1.0296173095703125 6.146251201629639 79 4 11
-1.4376657009124756 -2.2123355865478516 6.343931198120117 232 233 54
0.41098806262016296 2.8648695945739746 6.263467788696289 179 145 117
0.7886346578598022 -2.3414392471313477 6.37481164932251 227 233 223
0.5225250720977783 -1.0241316556930542 6.115023612976074 0 11 25
1.9894715547561646 3.2281110286712646 5.834038734436035 173 137 115
-1.986678957939148 2.1980185508728027 7.029580116271973 207 175 152
-0.03401455655694008 0.05144556239247322 6.914742469787598 214 186 60
-0.6553073525428772 2.539337158203125 6.619852066040039 112 77 57
-1.407766580581665 2.6243112087249756 6.6235246658325195 179 144 122
1.6523706912994385 1.0061296224594116 7.537959575653076 36 32 23
4.414177417755127 1.0261317491531372 7.5900444984436035 145 117 105
1.957038164138794 -2.2233569622039795 6.231916904449463 197 223 176
0.4087769389152527 -2.507558822631836 6.572458744049072 215 248 227
0.3493703007698059 -2.6057233810424805 6.67472505569458 204 233 205
1.753541350364685 -2.212228775024414 6.178946495056152 222 233 225
1.8127527236938477 -1.5921543836593628 5.703892230987549 0 147 48
-2.1847081184387207 -2.331878662109375 6.520796775817871 236 233 94
-1.3916974067687988 2.1040713787078857 7.071760177612305 183 147 125
2.0676991939544678 -1.2467083930969238 5.919615745544434 185 203 187
1.3974794149398804 3.159090995788574 5.931398391723633 111 73 52
-2.219597339630127 -0.0980602502822876 6.828546047210693 160 26 27
-2.913886308670044 2.654215097427368 6.709080696105957 185 154 134
2.172773838043213 -0.9241058230400085 6.158977031707764 163 170 40
-0.6732461452484131 3.1724398136138916 6.052396297454834 188 157 137
-1.2537341117858887 0.3257049322128296 7.173644065856934 101 194 79
2.8149254322052 -2.0118696689605713 5.986030101776123 189 224 246
-4.402528285980225 2.1519083976745605 7.27501916885376 140 99 77
-0.9828224182128906 -1.1995021104812622 6.023341655731201 92 14 14
-3.9413046836853027 2.4621784687042236 7.04214334487915 138 103 81
0.6224478483200073 -1.9629812240600586 6.018276691436768 154 191 220
-2.600562572479248 -0.7453608512878418 6.393632888793945 96 122 145
-0.3438225984573364 -2.5777924060821533 6.694757461547852 87 73 0
1.3777141571044922 -2.1350855827331543 6.132085800170898 101 126 130
-4.347806930541992 0.37966033816337585 8.837475776672363 181 145 123
-3.0907697677612305 -1.3845505714416504 5.973170280456543 157 233 205
-1.0156036615371704 3.1085517406463623 6.167341232299805 109 80 64
0.3881355822086334 -2.54266095161438 6.610977649688721 209 243 216
2.699103593826294 -1.4176636934280396 5.804196357727051 185 198 181
-0.5924287438392639 -2.007023811340332 6.116786003112793 165 255 206
-2.2803127765655518 2.875048875808716 6.45560359954834 121 88 69
2.1917545795440674 -1.3141332864761353 5.8830156326293945 183 208 169
-1.4450925588607788 -2.4026119709014893 6.556727409362793 237 241 92
4.493837833404541 1.443076252937317 7.235898494720459 175 144 126
-1.6092420816421509 2.8291537761688232 6.441748142242432 105 72 53
-0.48180830478668213 3.0048680305480957 6.185537338256836 216 180 156
-0.7012584805488586 1.8017851114273071 7.302944183349609 191 159 134
4.1442060470581055 1.9075556993484497 6.826046466827393 97 73 63
0.5407770276069641 -2.6086347103118896 6.666368007659912 209 245 219
0.3319796621799469 -2.490140199661255 6.580379009246826 211 244 217
-0.9824494123458862 -1.90833580493927 6.041753768920898 3 230 122
2.824928045272827 0.1155853420495987 6.9115190505981445 64 34 23
2.700437545776367 -1.2640331983566284 5.908656597137451 144 159 116
-0.9559734463691711 -1.973054051399231 6.099668025970459 175 254 207
-3.446972131729126 1.993701457977295 7.373647212982178 120 92 78
0.3766818940639496 -2.495900869369507 6.566146373748779 208 247 226
-0.32162436842918396 2.401146173477173 6.750805854797363 156 118 97
-3.76131010055542 1.7799962759017944 7.585025787353516 198 164 139
3.762415647506714 2.0231199264526367 6.7949419021606445 161 130 109
0.4896641671657562 1.0731724500656128 7.779390811920166 87 95 74
2.7042453289031982 1.4669785499572754 7.326402187347412 173 142 122
-2.816420316696167 3.0669620037078857 6.323954105377197 197 166 145
-1.3826162815093994 -1.9839279651641846 6.129707336425781 4 156 71
2.7706491947174072 -1.4622869491577148 5.770954608917236 10 33 23
2.178025484085083 -1.3524861335754395 5.860870838165283 97 108 94
1.2634471654891968 -2.085822105407715 6.096940517425537 178 215 231
-2.2847018241882324 -1.8619227409362793 6.077484130859375 101 176 199
-0.9477809071540833 2.1231584548950195 7.054443359375 188 154 129
2.6280264854431152 -1.2511005401611328 5.929280757904053 177 189 149
-0.814354419708252 0.43557390570640564 7.213752269744873 211 184 77
2.7042453289031982 1.4669785499572754 7.326402187347412 173 142 122
-1.1601580381393433 -1.942712664604187 6.08734655380249 171 255 205
-1.7580240964889526 2.4309494495391846 6.821755409240723 133 97 73
-3.7736644744873047 2.1735663414001465 7.223113536834717 145 107 86
0.2916138172149658 -2.5161325931549072 6.582852363586426 202 242 216
-2.664443016052246 -1.445151448249817 5.926341533660889 0 109 32
-2.4692041873931885 2.071967124938965 7.202492713928223 180 148 123
1.249216079711914 -2.472407579421997 6.475131511688232 201 220 234
0.46481969952583313 -2.5773065090179443 6.646031856536865 172 206 181
-1.1863489151000977 -1.9903827905654907 6.1346893310546875 123 211 160
1.4800856113433838 0.708479106426239 7.319603443145752 22 25 32
-2.3143458366394043 1.7655730247497559 7.433476448059082 184 148 122
2.1575238704681396 -1.4897643327713013 5.77070951461792 179 192 175
-0.21900160610675812 -1.9809061288833618 6.076130390167236 0 147 60
2.3965189456939697 -1.5480690002441406 5.733320713043213 139 21 21
2.6237120628356934 -0.8880382776260376 6.177883625030518 154 81 38
2.001171112060547 -2.314539670944214 6.307393550872803 71 152 135
-1.062954306602478 -1.303886890411377 5.958822250366211 169 210 230
-4.711845874786377 0.9264081716537476 8.410651206970215 188 153 131
-1.3086451292037964 -1.8599852323532104 5.997787952423096 207 251 106
0.8550437092781067 -1.2173793315887451 5.9798970222473145 30 42 66
0.16076968610286713 3.2254209518432617 5.950691223144531 77 44 29
-0.521257221698761 -1.998664140701294 6.109379768371582 0 181 90
-1.1229772567749023 3.241405487060547 6.007026672363281 175 143 122
-0.7940428256988525 -1.8674628734588623 6.004683971405029 151 255 199
0.6597985029220581 -2.1758697032928467 6.218803882598877 192 222 248
-0.20615147054195404 3.157149314880371 6.046509265899658 206 168 145
-3.088153600692749 -1.3928587436676025 5.979720592498779 2 136 65
2.0383360385894775 -2.1502845287323 6.116078853607178 209 209 139
-0.9693693518638611 -2.5286612510681152 6.668354511260986 242 195 107
0.35029667615890503 2.8149046897888184 6.3157172203063965 184 144 119
-0.8755267262458801 -1.873085856437683 6.012261390686035 11 234 145
1.271681547164917 2.474639654159546 6.557689189910889 130 98 83
-1.1725653409957886 2.683662176132202 6.555181503295898 114 77 59
0.3504825830459595 -2.5703492164611816 6.63901948928833 157 195 174
0.13861946761608124 -2.2005436420440674 6.248614311218262 97 102 79
1.9100732803344727 -2.0147299766540527 6.008479595184326 185 165 154
1.1400117874145508 2.279521942138672 6.780261039733887 149 113 97
1.2827813625335693 -2.1242830753326416 6.1445631980896 201 240 255
-1.4568638801574707 -1.9547343254089355 6.107527732849121 164 255 204
-4.094122409820557 2.144914388656616 7.225428581237793 198 166 145
-1.2932137250900269 0.6901528239250183 7.442030429840088 35 87 51
2.65720534324646 -1.2802523374557495 5.891016483306885 1 15 0
-0.5370997786521912 -2.0035364627838135 6.1063642501831055 190 255 220
-0.34998461604118347 -0.39171043038368225 6.364980697631836 105 2 5
0.6360021829605103 0.6220676302909851 6.940755367279053 187 127 39
0.6630874276161194 0.671524703502655 6.904053211212158 187 127 39
0.30460628867149353 -0.30056655406951904 6.5879974365234375 28 91 34
-0.018626932054758072 -0.9420055150985718 6.237395763397217 172 159 143
0.49810826778411865 0.6870186924934387 7.010041236877441 200 142 58
-0.6783586144447327 -0.4342394471168518 7.39184045791626 156 28 27
0.5153442025184631 -0.6872222423553467 6.102728366851807 8 0 0
-0.17641660571098328 0.0014715391444042325 6.956027030944824 215 205 144
0.9876189827919006 -0.39979442954063416 6.245668888092041 178 129 60
-0.24618899822235107 -0.36020562052726746 6.7757673263549805 173 170 165
0.25187554955482483 -1.1659369468688965 6.29030704498291 113 0 1
0.40511199831962585 -0.34565871953964233 6.517449855804443 41 177 77
0.050543997436761856 -0.3543851971626282 6.6586480140686035 170 187 207
-0.25922802090644836 -0.8815061450004578 6.392099857330322 196 203 222
0.5803530812263489 0.7583038806915283 6.956413269042969 154 79 40
-0.2554294764995575 0.7044851779937744 7.253499984741211 211 202 163
-0.05161169916391373 -0.6468442678451538 6.593352794647217 217 208 227
0.3894982635974884 -0.8431013822555542 6.15671443939209 87 33 0
0.2111392319202423 0.6160039305686951 7.076303005218506 204 190 155
0.7689912915229797 -0.13658808171749115 6.502898216247559 211 178 39
0.05543525516986847 0.05356163904070854 6.888526916503906 209 177 58
0.44573137164115906 0.39146360754966736 6.885557651519775 204 149 58
0.6063579320907593 -1.010768175125122 5.903626918792725 21 27 41
-0.4236346483230591 0.8964216709136963 7.397303104400635 194 127 72
-0.24901655316352844 0.6725555062294006 7.265648365020752 211 202 163
0.3158383369445801 0.14351779222488403 6.830119609832764 5 131 31
0.7611389756202698 -0.646432638168335 6.10733699798584 32 27 23
-0.24419346451759338 -0.852302610874176 6.381900787353516 196 203 222
-0.0320347398519516 -0.8816716074943542 6.193159580230713 172 163 146
-0.5327378511428833 0.0898929238319397 7.102579593658447 25 162 48
0.7841044068336487 0.21306081116199493 6.676424980163574 104 177 59
0.4037756323814392 -1.1076220273971558 5.903431415557861 43 9 0
-0.28473231196403503 0.5779026746749878 7.248224258422852 206 140 56
0.5964336395263672 -0.9838879704475403 5.9083967208862305 21 27 41
0.44406816363334656 -0.07952052354812622 6.688083648681641 186 103 25
0.05207042396068573 0.051507070660591125 6.8906097412109375 209 177 58
-0.22309453785419464 -0.522560715675354 6.659600257873535 102 2 4
-0.028153182938694954 -0.7287111282348633 6.421299457550049 77 0 6
-0.4734938442707062 -0.3876955807209015 6.439074993133545 162 145 129
0.31298670172691345 -0.6842500567436218 6.324545383453369 122 60 9
0.2000950425863266 0.19979949295520782 6.903916358947754 205 179 56
0.8594545125961304 -0.490511029958725 6.229122161865234 195 205 232
-0.5519698858261108 0.5401735305786133 7.339503765106201 64 36 24
0.052306681871414185 0.3451881408691406 7.023015975952148 203 152 43
0.09389453381299973 -0.1441323310136795 6.764628887176514 37 163 55
0.12264958024024963 -0.9208024144172668 6.169161319732666 161 28 31
0.03165348991751671 0.7802841663360596 7.188502311706543 112 67 44
0.41917675733566284 -0.9647448062896729 6.033266544342041 144 24 23
0.261472225189209 0.8649078607559204 7.119182586669922 152 81 51
0.39501717686653137 0.2805536985397339 6.889219284057617 214 195 139
-0.578657329082489 -0.6975346803665161 6.699556827545166 172 153 139
0.4203462302684784 -0.9722511172294617 6.038577079772949 148 24 24
1.0433770418167114 0.2405536025762558 6.587775707244873 159 102 59
0.227355495095253 -0.685274064540863 6.359523773193359 182 199 225
-0.37125536799430847 -1.057382583618164 6.29645299911499 173 196 227
-0.257455050945282 -0.6345036625862122 6.5923919677734375 225 211 226
0.6742661595344543 0.46399909257888794 6.82326078414917 199 159 48
-0.0586090087890625 -0.5187740325927734 6.603975296020508 176 179 196
-0.6710283160209656 0.12715239822864532 7.219034194946289 57 180 74
0.8596655130386353 -0.4434065520763397 6.265133857727051 186 199 216
0.4517963230609894 -0.58885258436203 6.330106735229492 228 181 101
0.03165348991751671 0.7802841663360596 7.188502311706543 112 67 44
-0.448050320148468 -0.358100950717926 6.4436798095703125 194 207 224
-0.06063864380121231 -0.7298762202262878 6.439110279083252 163 160 151
0.38638848066329956 0.879544198513031 7.076076030731201 55 44 38
0.35036495327949524 -0.6782988905906677 6.305052757263184 14 5 0
0.3003378212451935 -0.0010229172185063362 6.764360427856445 10 136 39
0.35036495327949524 -0.6782988905906677 6.305052757263184 14 5 0
-0.22437651455402374 -1.0519025325775146 6.231968402862549 156 26 28
-0.6772726774215698 0.30230712890625 7.300196647644043 41 176 71
-0.37725400924682617 -0.07478583604097366 6.966421127319336 5 150 45
0.3003378212451935 -0.0010229172185063362 6.764360427856445 10 136 39
0.40119093656539917 0.050662580877542496 6.748105525970459 8 133 31
0.30160313844680786 0.23805657029151917 6.883208274841309 14 117 25
0.26130732893943787 0.04515981674194336 6.853111267089844 19 143 45
0.35260820388793945 -0.5186678171157837 6.4200005531311035 233 222 239
0.9298961758613586 -0.5477738976478577 6.210008144378662 10 10 10
-0.13813789188861847 -0.9958760738372803 6.219160556793213 161 21 24
0.4240418076515198 -0.23391301929950714 6.586228847503662 21 153 54
-0.37125536799430847 -1.057382583618164 6.29645299911499 173 196 227
-0.6144130229949951 0.15136751532554626 7.208138465881348 52 179 66
-0.6599693894386292 -0.2631673216819763 6.950104236602783 149 19 19
-0.012569516897201538 0.6696835160255432 7.1657586097717285 209 171 64
0.3932512402534485 -0.43873435258865356 6.462117671966553 39 12 0
-0.2526492774486542 -0.08146685361862183 6.920316696166992 37 176 57
-0.015079651959240437 -0.02474229224026203 6.880036354064941 55 187 78
0.4376634359359741 -0.7255845069885254 6.252037525177002 17 17 19
0.594343364238739 -0.5045367479324341 6.363570213317871 204 121 43
0.9397218823432922 -0.5336231589317322 6.1737213134765625 28 32 43
0.8708574175834656 -0.5250786542892456 6.202023506164551 8 28 53
0.9713274240493774 -0.49924176931381226 6.179551601409912 17 26 35
0.6763595342636108 0.32549259066581726 6.77125883102417 102 107 13
0.28761622309684753 -1.0176575183868408 6.052950382232666 176 197 224
-0.5520757436752319 -0.5505136847496033 6.726243495941162 181 198 224
0.33735084533691406 -0.5756652355194092 6.388105869293213 161 102 58
-0.35294824838638306 0.14113914966583252 7.071002960205078 214 188 41
-0.4010952115058899 0.594541072845459 7.2999677658081055 151 95 34
-0.49148961901664734 0.08553517609834671 7.126153469085693 53 181 68
0.27586761116981506 -0.5752919316291809 6.411684989929199 213 213 223
-0.019398165866732597 0.6770378351211548 7.165944576263428 209 171 64
-0.1410824954509735 -0.668185830116272 6.533726215362549 184 201 229
-0.015079651959240437 -0.02474229224026203 6.880036354064941 55 187 78
-0.5464542508125305 -0.7811592221260071 6.584588050842285 157 24 25
0.15753339231014252 0.9213563203811646 7.175712585449219 65 49 49
0.40293067693710327 -0.05316467210650444 6.699396133422852 195 112 32
-0.06693388521671295 0.42443111538887024 7.1035566329956055 203 115 51
0.34765157103538513 -0.4919198155403137 6.434974193572998 98 11 19
0.9933272004127502 -0.4541756212711334 6.2056779861450195 0 16 36
-0.6182543039321899 -0.1852770745754242 7.0241923332214355 191 206 227
-0.08067233860492706 0.6491939425468445 7.191951751708984 200 163 82
0.42722994089126587 -0.6089917421340942 6.324445724487305 221 179 81
-0.19546125829219818 0.5849670171737671 7.1976704597473145 195 105 52
0.01593184471130371 0.996834933757782 7.2385172843933105 61 56 52
0.36763331294059753 -1.1228806972503662 5.892279148101807 17 0 0
0.07157536596059799 0.7220868468284607 7.151693344116211 200 137 66
-0.709133505821228 -0.07474418729543686 7.068800449371338 184 199 218
0.07406540960073471 0.1276904195547104 6.922839641571045 67 120 28
0.2261047512292862 0.3252756893634796 6.951156139373779 210 183 92
0.25797387957572937 0.23559165000915527 6.896766662597656 178 178 58
-0.5298006534576416 -0.044806044548749924 7.077380180358887 12 77 19
0.12241010367870331 0.7471850514411926 7.136097431182861 196 140 63
0.014720422215759754 0.009795496240258217 6.885523796081543 19 151 50
0.08162871748209 -0.7825974225997925 6.330840587615967 158 28 30
0.015409407205879688 0.9418550729751587 7.237118721008301 59 50 45
-0.3836570382118225 0.6376132369041443 7.300873279571533 216 203 171
0.12575246393680573 0.2663891613483429 6.964383602142334 212 201 155
-0.21864773333072662 -0.5128098130226135 6.666250705718994 252 229 237
-0.2571049630641937 -0.1504748910665512 6.910345077514648 14 80 18
0.2283397912979126 0.3081422448158264 6.94080114364624 138 113 29
0.8036393523216248 -0.4340442419052124 6.331791400909424 152 79 10
0.661102831363678 -0.16762982308864594 6.526564598083496 179 100 21
-0.2625822126865387 -0.023955121636390686 6.982206344604492 15 158 53
0.413169264793396 -0.018000803887844086 6.711787700653076 84 92 15
-0.45643338561058044 -0.6594328284263611 6.657221794128418 159 149 140
0.35653913021087646 -0.2322709858417511 6.615371227264404 4 140 40
0.8365064263343811 0.5051732063293457 6.77234411239624 127 64 31
0.47462666034698486 -0.5165135264396667 6.377297401428223 2 3 0
0.3351987898349762 0.24916449189186096 6.870790004730225 73 135 34
0.34575968980789185 0.04037316143512726 6.761159420013428 26 155 62
0.06736590713262558 -0.057152025401592255 6.824501991271973 74 192 82
-0.26385748386383057 -0.8929945826530457 6.388357162475586 103 0 8
-0.7641594409942627 -0.2268098145723343 7.078199863433838 179 164 145
0.836539626121521 0.38512930274009705 6.729197978973389 175 91 31
0.39781850576400757 0.09757553040981293 6.772285461425781 0 118 16
-0.06892887502908707 0.941110372543335 7.267059803009033 61 54 44
-0.28652894496917725 -0.857617199420929 6.424166202545166 190 199 208
0.8319248557090759 0.2927677631378174 6.696569919586182 184 116 71
-0.6030323505401611 -0.2714952528476715 6.981700420379639 149 21 22
-0.6837971806526184 0.33502212166786194 7.315359115600586 18 110 23
0.4726642966270447 0.063252754509449 6.722605228424072 76 157 28
0.6240195631980896 -1.0785810947418213 5.820528507232666 22 35 51
0.46236667037010193 -0.5800980925559998 6.332932949066162 46 18 0
-0.3676779866218567 0.2965109348297119 7.171802997589111 112 72 2
-0.28838300704956055 0.21413971483707428 7.095152378082275 207 207 181
-0.4678894281387329 0.11482837796211243 7.1318254470825195 40 138 27
0.4276902675628662 -0.5103514194488525 6.396839618682861 144 59 54
0.4327680766582489 -0.5166460871696472 6.390265941619873 28 7 2
0.05613843724131584 0.7997264862060547 7.184214115142822 125 78 48
0.2342098206281662 0.9163223505020142 7.14691162109375 56 52 40
0.35260820388793945 -0.5186678171157837 6.4200005531311035 233 222 239
0.7995377779006958 -0.41890057921409607 6.349976539611816 205 149 38
0.4427718222141266 -0.5009424686431885 6.398825168609619 50 21 7
0.2820180058479309 0.09487941116094589 6.769743919372559 0 122 25
0.43345198035240173 0.137150377035141 6.783154010772705 71 160 30
-0.015203312039375305 -0.13130387663841248 6.817334175109863 27 165 53
0.22923608124256134 -0.1598462015390396 6.704223155975342 3 142 39
0.09943894296884537 0.9383512735366821 7.204832077026367 55 58 37
0.23458340764045715 -0.5159457325935364 6.475268363952637 178 195 221
0.3091455399990082 0.15440499782562256 6.894445896148682 62 187 85
0.6147059798240662 0.29394352436065674 6.782767295837402 200 153 47
-0.4841924011707306 -0.7595603466033936 6.594057083129883 148 9 12
0.750140368938446 0.24587614834308624 6.750422954559326 204 196 173
-0.04160848259925842 -0.07157647609710693 6.851729393005371 8 147 46
0.5857936143875122 0.5224605798721313 6.884753704071045 129 68 0
