ply
format ascii 1.0
element vertex 712
property float x
property float y
property float z
property uchar red
property uchar green
property uchar blue
end_header
-4.996856689453125 1.111319899559021 8.12335205078125 180 147 128
-1.3733651638031006 -1.067704439163208 6.0337982177734375 81 3 1
-0.6005869507789612 1.3698222637176514 7.53648042678833 146 103 86
0.322569340467453 1.5608947277069092 7.2977776527404785 199 160 129
1.803749918937683 2.9534389972686768 5.9745564460754395 170 135 116
3.555314064025879 2.050001621246338 6.650835990905762 148 113 94
-0.2133791446685791 2.9578793048858643 6.111458778381348 166 128 105
-1.4149471521377563 -1.0318067073822021 6.06562614440918 123 28 32
-0.8010766506195068 -1.2335715293884277 5.926130771636963 81 0 1
2.0526115894317627 3.01349139213562 5.918010711669922 47 29 25
-1.0046823024749756 -1.1627674102783203 5.975122928619385 180 195 218
1.7870070934295654 2.94604754447937 5.977165699005127 181 146 127
3.5572304725646973 2.0113513469696045 6.72559118270874 176 144 123
-0.8010766506195068 -1.2335715293884277 5.926130771636963 81 0 1
2.031810760498047 -1.2580571174621582 5.847209453582764 180 192 168
0.338481605052948 2.069437265396118 6.900183200836182 111 93 83
3.669832944869995 2.2278997898101807 6.507786750793457 129 100 84
-1.4397631883621216 -1.0258243083953857 6.0671234130859375 210 226 249
-1.1926497220993042 -1.192278504371643 5.961104869842529 108 18 20
2.7051122188568115 2.3349509239196777 6.539266109466553 196 161 141
2.6546831130981445 -0.656408965587616 6.258627891540527 152 84 39
2.4057652950286865 -1.5103365182876587 5.695191860198975 185 197 185
-1.0848015546798706 -1.2852386236190796 5.897879600524902 216 218 230
1.214927077293396 -2.1037518978118896 6.094180583953857 97 133 147
-2.3517227172851562 1.2198114395141602 7.826943874359131 135 94 72
1.740837812423706 -1.4600406885147095 5.729875087738037 135 22 24
1.5283232927322388 1.452172875404358 7.277549743652344 127 94 75
0.6774807572364807 1.6094141006469727 7.202727317810059 132 91 71
4.7373127937316895 1.38942289352417 7.182941436767578 188 156 133
0.35091981291770935 -0.22789965569972992 6.513913154602051 2 153 46
2.7058768272399902 -0.5937665104866028 6.300042629241943 79 161 50
0.908124566078186 -2.429880142211914 6.446817398071289 115 135 110
0.6196703910827637 1.4870389699935913 7.371002674102783 178 137 107
-1.1365094184875488 -1.142140507698059 5.979989528656006 88 0 3
2.5710179805755615 -1.4257218837738037 5.748209476470947 180 198 176
3.3695144653320312 2.396528720855713 6.426596164703369 140 109 91
-1.6821966171264648 2.40385103225708 6.740116119384766 183 148 126
1.5790363550186157 1.8162708282470703 6.982328414916992 103 70 55
2.357745885848999 2.33858323097229 6.561500072479248 169 133 111
0.7415652275085449 -1.377764105796814 5.818482398986816 10 0 0
0.38479313254356384 -0.8295180201530457 6.064337253570557 129 68 14
0.8110389709472656 -1.1705636978149414 5.925641059875488 30 3 0
-0.980986475944519 -1.1385703086853027 5.988239765167236 191 211 238
2.4165704250335693 -1.3270777463912964 5.8017754554748535 2 32 22
4.573301315307617 1.8429442644119263 6.793467044830322 197 166 146
1.949711799621582 -1.5309593677520752 5.684938907623291 138 21 29
0.7533672451972961 -2.058858633041382 6.065313816070557 204 209 215
2.4165704250335693 -1.3270777463912964 5.8017754554748535 2 32 22
2.0100951194763184 -1.323075771331787 5.808143138885498 183 195 181
-0.5840599536895752 1.7078025341033936 7.259097099304199 193 152 124
2.5143699645996094 -1.4012006521224976 5.7707061767578125 168 187 159
-1.1636983156204224 -1.0486950874328613 6.051852226257324 93 12 18
-0.6729866862297058 -1.8391132354736328 5.940961837768555 100 188 140
-1.3118191957473755 1.6809359788894653 7.333596706390381 179 143 119
0.11053797602653503 1.463047981262207 7.391208171844482 193 148 119
2.75734281539917 -1.305512547492981 5.822481632232666 191 200 173
4.80814266204834 1.0514940023422241 7.5512309074401855 103 77 64
-0.9089537262916565 -2.245912790298462 6.33931827545166 251 241 91
-4.019773483276367 1.725599765777588 7.532315731048584 155 118 99
-1.2499167919158936 -1.3133987188339233 5.880383491516113 167 38 42
1.9400807619094849 2.979161500930786 5.949088096618652 147 115 92
-1.0848015546798706 -1.2852386236190796 5.897879600524902 216 218 230
2.6948492527008057 2.955875873565674 5.914403915405273 167 134 115
-1.1560249328613281 -1.2260918617248535 5.938356399536133 187 203 228
2.9311370849609375 0.9680852293968201 7.446503162384033 127 111 96
3.59515643119812 1.5310959815979004 7.124573230743408 199 168 148
4.248110294342041 1.8816173076629639 6.723700046539307 172 142 118
-0.8513696789741516 -1.2374752759933472 5.927048206329346 92 7 14
3.919804334640503 1.056557059288025 7.320404052734375 120 87 70
1.6927237510681152 2.2757439613342285 6.615691184997559 131 94 76
2.194478750228882 2.335373878479004 6.5137038230896 102 75 68
2.220365047454834 2.7592337131500244 6.135263442993164 163 131 116
-1.0238944292068481 -1.273402214050293 5.902842998504639 203 208 211
0.07043883204460144 -2.140922784805298 6.181271553039551 79 94 51
-2.6055173873901367 -1.235471487045288 5.983520030975342 0 105 16
2.7927491664886475 -1.4480701684951782 5.740806579589844 7 25 13
-1.5057919025421143 1.7499070167541504 7.284206867218018 201 163 140
-2.4076178073883057 -1.3492913246154785 5.869087219238281 174 221 227
-0.5453263521194458 1.545487642288208 7.377110481262207 144 109 89
-0.9878684282302856 -1.2602640390396118 5.903398513793945 170 210 236
0.31270310282707214 2.6147758960723877 6.418447017669678 147 106 84
1.566199779510498 1.7677133083343506 7.036824703216553 185 141 112
2.6941404342651367 -1.4198827743530273 5.737565517425537 32 48 35
-0.02977275475859642 1.6538299322128296 7.228712558746338 180 143 117
2.6512653827667236 -1.2473599910736084 5.867846488952637 187 201 178
2.3581013679504395 -1.560975432395935 5.671875953674316 147 24 27
4.2083330154418945 1.7744183540344238 6.898055076599121 202 174 152
-2.622345209121704 -1.4200646877288818 5.8657145500183105 3 159 76
2.4447834491729736 -1.197195291519165 5.8882646560668945 183 197 182
-1.1042126417160034 -1.105741024017334 6.00808572769165 93 3 12
-2.527627468109131 -1.3621652126312256 5.881115913391113 3 175 75
2.3321688175201416 -1.3265795707702637 5.821382999420166 17 38 29
0.7144522666931152 2.185877561569214 6.782758712768555 179 150 136
-1.2851966619491577 -1.0797016620635986 6.0297064781188965 117 25 28
2.1784982681274414 1.7045836448669434 7.065074443817139 89 62 45
-0.8195384740829468 -1.2535885572433472 5.921538352966309 109 16 27
2.1658496856689453 -1.00553560256958 6.018001079559326 194 216 195
2.667329788208008 -1.4779834747314453 5.716498374938965 186 201 182
2.828721523284912 1.761866569519043 6.992053985595703 192 163 145
-0.2862394154071808 1.6090354919433594 7.314671039581299 182 141 113
-1.1399675607681274 -1.2291685342788696 5.930468559265137 200 205 225
2.603209972381592 -1.3881748914718628 5.767950057983398 185 196 179
1.8981578350067139 -1.937484860420227 5.937840938568115 193 236 255
1.6427690982818604 2.903301477432251 6.036732196807861 50 34 21
2.454347610473633 2.5174150466918945 6.374848365783691 180 145 123
3.546881675720215 3.115220785140991 5.698094844818115 155 119 95
4.386237144470215 1.5061273574829102 7.064423561096191 199 177 156
1.4036062955856323 -1.149681806564331 5.932103633880615 0 7 12
-4.285194396972656 1.6285361051559448 7.657700061798096 129 96 77
2.373584747314453 -1.6259257793426514 5.679960250854492 200 233 214
-2.8659279346466064 1.8020719289779663 7.301976680755615 171 131 105
2.6382246017456055 -1.451894998550415 5.723779678344727 8 34 21
-1.3427640199661255 -1.0180073976516724 6.073838233947754 121 26 32
-1.1636983156204224 -1.0486950874328613 6.051852226257324 93 12 18
0.7740461826324463 -1.1436439752578735 5.951675891876221 21 19 22
2.3478922843933105 1.936224102973938 6.879335403442383 192 160 139
0.28090277314186096 1.4340935945510864 7.443948745727539 150 104 81
2.336052656173706 -1.5339980125427246 5.679133415222168 182 190 177
2.282262086868286 -1.5202828645706177 5.700295448303223 182 195 185
-1.2222424745559692 -1.1701855659484863 5.972713470458984 119 32 40
1.9608713388442993 3.0299603939056396 5.90683650970459 41 26 21
0.4756859242916107 1.8305222988128662 7.0847697257995605 187 151 127
4.703958034515381 1.7758666276931763 6.8032965660095215 194 166 142
-2.367532968521118 2.088714838027954 7.048539638519287 115 84 66
-1.5885344743728638 -1.028170108795166 6.076826095581055 114 19 25
-1.2700225114822388 -1.0550343990325928 6.042970180511475 163 197 232
2.6716976165771484 -1.3558366298675537 5.786434173583984 167 188 171
-2.54839825630188 1.7655268907546997 7.319141864776611 197 161 135
3.270714044570923 2.0628302097320557 6.651628017425537 96 74 61
3.622819423675537 1.539101481437683 7.086900234222412 183 155 134
-1.122921109199524 -1.2468676567077637 5.9267096519470215 176 206 232
-1.9144519567489624 -1.0347908735275269 6.077414035797119 98 14 14
-3.0625417232513428 1.1226036548614502 7.853257179260254 30 70 36
1.463715672492981 1.2509527206420898 7.482633113861084 142 98 73
1.3989852666854858 -1.2084678411483765 5.892482757568359 2 13 19
-0.2817293405532837 1.823263168334961 7.117950916290283 181 146 124
-1.2485712766647339 -1.2212015390396118 5.942990303039551 100 14 15
1.734597086906433 2.010700225830078 6.847927093505859 122 85 59
-1.7215683460235596 -1.044998288154602 6.0574846267700195 189 197 220
-1.0173490047454834 -1.077998161315918 6.044788837432861 165 201 233
-0.2732374966144562 1.6407142877578735 7.27662467956543 95 68 51
4.351301670074463 1.7633254528045654 6.904440402984619 198 175 157
-2.4076178073883057 -1.3492913246154785 5.869087219238281 174 221 227
2.7178337574005127 -1.5076097249984741 5.697153568267822 17 39 26
-1.1019985675811768 -1.2696762084960938 5.901354789733887 110 18 23
-2.5106003284454346 -1.3392057418823242 5.892733097076416 164 219 216
-2.367532968521118 2.088714838027954 7.048539638519287 115 84 66
-0.8466881513595581 -1.1754511594772339 5.967385768890381 173 202 234
3.7805700302124023 1.42383873462677 7.190093040466309 208 181 160
2.29520845413208 -1.2042745351791382 5.890514373779297 7 14 6
-0.5827670693397522 2.492058753967285 6.534557342529297 196 162 137
1.140089988708496 2.626796245574951 6.317337512969971 168 136 115
0.8523310422897339 -2.1144113540649414 6.1231818199157715 188 234 255
1.2145655155181885 1.4941084384918213 7.271909236907959 153 112 90
-1.0175888538360596 -1.167423963546753 5.969681739807129 68 0 8
0.9410508275032043 0.2580152451992035 6.904781818389893 24 19 16
-1.6695632934570312 -1.1241207122802734 6.008267879486084 59 0 0
1.9206029176712036 -1.459731101989746 5.7240166664123535 133 17 20
-0.959514319896698 -1.137925386428833 5.989727973937988 79 3 5
-1.675592064857483 -1.0296084880828857 6.073272228240967 105 13 18
-2.0637803077697754 1.7146252393722534 7.346135139465332 171 133 110
-1.3421469926834106 -1.0905418395996094 6.018126487731934 113 18 24
-1.933789610862732 1.721893310546875 7.382944107055664 196 160 134
-1.4529935121536255 -1.0922877788543701 6.027924060821533 92 7 12
-3.5985331535339355 1.4268313646316528 7.753331661224365 192 155 129
-0.9808003306388855 -1.1531060934066772 5.972409248352051 118 19 22
3.554287910461426 2.6701126098632812 6.147826194763184 158 127 107
2.193700075149536 -1.1522858142852783 5.919256687164307 201 221 210
-0.9668869376182556 -1.1978468894958496 5.959014892578125 209 211 232
-1.3774476051330566 -1.057340145111084 6.043973445892334 120 24 26
0.4045477509498596 -0.011845714412629604 6.606017589569092 201 155 67
2.5615501403808594 -0.7781765460968018 6.1712327003479 109 43 8
2.646928310394287 1.2381393909454346 7.419135570526123 119 87 66
-2.092388868331909 2.1662180423736572 6.963862895965576 192 156 130
-0.5704841613769531 1.565064787864685 7.41602087020874 130 98 77
-1.281535029411316 -1.056226134300232 6.044798851013184 202 201 232
0.19776608049869537 1.507334589958191 7.369759559631348 195 151 124
-1.4149471521377563 -1.0318067073822021 6.06562614440918 123 28 32
3.3361613750457764 2.069103240966797 6.673768520355225 185 153 130
1.6072431802749634 -2.2348711490631104 6.18116569519043 192 248 239
0.6986814141273499 -2.0608432292938232 6.079244613647461 168 141 156
-0.32574331760406494 1.8032875061035156 7.141558647155762 186 151 132
-0.41046085953712463 -1.8741207122802734 5.950410842895508 187 251 227
-0.8016836047172546 1.7330172061920166 7.249142646789551 199 169 143
2.7571468353271484 -1.4443130493164062 5.732302665710449 0 20 0
-0.30458682775497437 2.071542501449585 6.906786918640137 131 103 89
-1.2149577140808105 -1.0154438018798828 6.075340747833252 88 9 14
-0.7390673160552979 1.7529118061065674 7.230295658111572 200 165 145
-1.5134973526000977 -1.059175968170166 6.057297706604004 99 12 21
2.490961790084839 2.5520029067993164 6.296228885650635 43 19 17
1.4195045232772827 -1.1773635149002075 5.907506465911865 2 138 53
2.659205913543701 -1.3644943237304688 5.78157377243042 19 41 29
2.6643919944763184 -1.4537973403930664 5.7313432693481445 9 28 8
-1.675592064857483 -1.0296084880828857 6.073272228240967 105 13 18
1.772170066833496 2.857537269592285 6.081667423248291 186 154 131
0.6537488102912903 2.1055023670196533 6.8476152420043945 176 146 122
0.5626601576805115 -1.3097033500671387 5.863523006439209 12 0 0
-4.0465593338012695 2.8431153297424316 6.666661739349365 178 150 129
-2.6654770374298096 -1.3945709466934204 5.8700032234191895 174 218 227
1.3800350427627563 2.4174561500549316 6.4772515296936035 182 148 123
4.304487228393555 0.9709373116493225 7.508518218994141 136 107 93
0.11748937517404556 2.7727484703063965 6.2403244972229 173 133 108
-2.510319709777832 -0.8268277049064636 6.258047103881836 0 153 48
2.008312225341797 -1.983544945716858 5.950283527374268 112 107 103
2.16998553276062 -1.32548189163208 5.814482688903809 207 212 192
-2.7013800144195557 -1.3389371633529663 5.916618347167969 0 106 37
-2.440756320953369 -1.3213515281677246 5.8989410400390625 12 133 54
2.0526115894317627 3.01349139213562 5.918010711669922 47 29 25
3.567551374435425 1.420797348022461 7.171328544616699 143 114 100
-1.2825407981872559 -1.2663811445236206 5.907384395599365 92 16 16
-1.2842397689819336 -1.0280598402023315 6.0653486251831055 105 15 25
2.2056663036346436 -1.1280750036239624 5.929187297821045 195 204 177
2.2457501888275146 -1.0253490209579468 6.034195423126221 187 198 184
-1.3645492792129517 -1.1879225969314575 5.961619853973389 170 207 236
-2.656456232070923 1.325767159461975 7.743879318237305 169 123 97
1.8555543422698975 2.204477071762085 6.638891696929932 73 51 38
-0.9423858523368835 -0.6519078612327576 6.323690891265869 184 175 158
2.5932068824768066 -1.2639790773391724 5.851080894470215 1 18 2
0.595591127872467 2.1395208835601807 6.804732322692871 179 151 130
0.8393914699554443 -2.312091112136841 6.335861682891846 143 135 116
1.505533218383789 0.653395414352417 7.240273475646973 22 25 30
2.107656717300415 -2.0098378658294678 5.976727485656738 194 232 241
1.911476492881775 -1.9609766006469727 5.9441094398498535 170 175 171
-1.2201355695724487 -1.9609580039978027 6.055507183074951 3 224 119
2.2590432167053223 -1.1135715246200562 5.943173885345459 183 196 178
3.7766506671905518 2.094393491744995 6.60716438293457 174 144 120
3.0114049911499023 2.8518383502960205 6.001884937286377 58 39 33
0.8951367735862732 -1.2025506496429443 5.909610271453857 14 0 0
2.1806468963623047 -1.4452818632125854 5.740495204925537 127 31 35
-1.3427640199661255 -1.0180073976516724 6.073838233947754 121 26 32
2.305772066116333 -1.3025569915771484 5.822298526763916 178 196 180
-0.876548171043396 -1.2290902137756348 5.932410717010498 54 0 14
1.4484835863113403 1.863155484199524 7.028554439544678 192 151 121
2.7724902629852295 -1.39407217502594 5.757436275482178 184 196 176
-1.5738117694854736 -1.049625039100647 6.0515899658203125 66 17 23
-0.9056488871574402 -1.2294983863830566 5.925872802734375 86 0 11
2.2852602005004883 -1.3201216459274292 5.793388843536377 1 15 0
2.702240467071533 2.2399775981903076 6.556835174560547 148 117 99
-1.1786881685256958 -1.2555832862854004 5.910667896270752 166 198 221
-2.7013800144195557 -1.3389371633529663 5.916618347167969 0 106 37
0.908124566078186 -2.429880142211914 6.446817398071289 115 135 110
2.3159615993499756 2.5523016452789307 6.31540584564209 168 133 113
-1.0484637022018433 2.963418483734131 6.169031620025635 176 135 115
2.75734281539917 -1.305512547492981 5.822481632232666 191 200 173
2.8943872451782227 2.2473206520080566 6.5726776123046875 185 154 133
-1.3764114379882812 2.8333444595336914 6.3152174949646 189 155 127
1.1765005588531494 -1.2555831670761108 5.872474193572998 22 2 0
2.26432466506958 -1.5002104043960571 5.718568801879883 134 23 30
2.490961790084839 2.5520029067993164 6.296228885650635 43 19 17
2.846703290939331 2.602843761444092 6.2259674072265625 179 145 120
1.8047643899917603 2.588585138320923 6.312582969665527 201 175 152
2.6831183433532715 -2.060011148452759 6.0199055671691895 19 45 72
-1.1180282831192017 -1.2222034931182861 5.928050518035889 100 8 13
2.526001453399658 -1.3867902755737305 5.7730841636657715 10 28 14
3.211589813232422 1.996990442276001 6.704853057861328 194 166 144
1.9911898374557495 3.106902837753296 5.826948642730713 114 76 53
1.9926338195800781 -1.292474389076233 5.822400093078613 12 35 25
-5.461591720581055 0.9592604637145996 8.355494499206543 177 136 106
-1.5937076807022095 -1.1588269472122192 5.9843292236328125 80 0 11
1.4226921796798706 -2.335775136947632 6.291324615478516 143 132 140
-1.7496488094329834 -1.12506103515625 6.004487037658691 113 22 27
2.6512653827667236 -1.2473599910736084 5.867846488952637 187 201 178
2.6831183433532715 -2.060011148452759 6.0199055671691895 19 45 72
-2.0743677616119385 0.6885265707969666 7.440843105316162 26 24 25
1.1573237180709839 0.630219042301178 7.235474586486816 163 82 37
2.5006070137023926 -1.3819466829299927 5.762814521789551 11 39 27
1.829938530921936 2.6022443771362305 6.315737724304199 179 148 130
4.623283386230469 1.4070841073989868 7.090414047241211 131 95 81
-1.0518226623535156 -1.1870129108428955 5.951257228851318 105 18 24
2.087763547897339 -2.000044822692871 5.960719108581543 167 193 194
-1.1019985675811768 -1.2696762084960938 5.901354789733887 110 18 23
0.07457219064235687 2.365100860595703 6.6299238204956055 198 165 146
0.07457219064235687 2.365100860595703 6.6299238204956055 198 165 146
-2.6050994396209717 -1.3194923400878906 5.914320468902588 0 146 74
1.463715672492981 1.2509527206420898 7.482633113861084 142 98 73
-1.5936568975448608 1.576757788658142 7.404786586761475 167 127 101
3.0694713592529297 1.3731036186218262 7.35107421875 147 119 105
1.9400807619094849 2.979161500930786 5.949088096618652 147 115 92
-2.638747453689575 -1.3590291738510132 5.892594337463379 196 232 244
1.0857774019241333 1.6112258434295654 7.213929176330566 95 63 48
-1.5076981782913208 1.1891589164733887 7.752987384796143 139 106 87
-0.7295069098472595 1.6322931051254272 7.3303022384643555 188 152 120
0.725959837436676 2.347625970840454 6.608413219451904 179 151 129
-2.5106003284454346 -1.3392057418823242 5.892733097076416 164 219 216
-1.5134973526000977 -1.059175968170166 6.057297706604004 99 12 21
-1.557931661605835 -1.1892635822296143 5.9704742431640625 80 9 15
-2.5215368270874023 2.163865327835083 7.009385108947754 205 175 151
1.8026912212371826 2.0413453578948975 6.818542003631592 102 67 47
2.470785617828369 -1.2370471954345703 5.873523235321045 198 208 173
3.4978079795837402 3.1654770374298096 5.6775336265563965 136 99 81
-0.43259426951408386 2.620145320892334 6.438746929168701 114 85 71
-1.128913402557373 -0.9336081147193909 6.129067897796631 167 156 134
-2.43660831451416 1.8256136178970337 7.284182071685791 201 169 144
2.259533643722534 1.6923420429229736 7.081582546234131 187 143 116
-1.1415729522705078 -1.081046223640442 6.033576965332031 69 1 12
2.213277578353882 -1.4102681875228882 5.75861120223999 192 206 193
3.1704490184783936 2.8199241161346436 6.028107643127441 195 167 143
2.3159615993499756 2.5523016452789307 6.31540584564209 168 133 113
3.671924352645874 2.4229352474212646 6.358166217803955 169 139 115
3.871544122695923 2.666990280151367 6.124838829040527 149 118 100
2.8555562496185303 0.49332496523857117 7.089109897613525 189 139 54
-0.6520336866378784 2.827303647994995 6.258011341094971 72 45 38
2.1226611137390137 -1.4553191661834717 5.745429039001465 88 0 0
2.2718265056610107 -1.1828984022140503 5.911102294921875 197 210 184
2.317824125289917 -1.294033169746399 5.824786186218262 182 195 177
4.368782043457031 2.0868988037109375 6.593438148498535 168 136 115
2.718667507171631 -1.4673261642456055 5.71353006362915 180 204 172
2.4690678119659424 2.2901809215545654 6.540380477905273 143 107 91
-1.1415729522705078 -1.081046223640442 6.033576965332031 69 1 12
-0.9292554259300232 -1.2355355024337769 5.919719696044922 107 21 22
2.6382246017456055 -1.451894998550415 5.723779678344727 8 34 21
0.6421953439712524 0.5043132901191711 7.164437770843506 206 172 101
2.554666757583618 -1.2557275295257568 5.850102424621582 0 10 6
-1.280032992362976 -1.1908891201019287 5.9582085609436035 206 209 226
2.7065796852111816 2.4658432006835938 6.372356414794922 195 159 135
-1.0551997423171997 2.7860958576202393 6.309670448303223 209 173 149
0.8242259621620178 -2.4053773880004883 6.423458099365234 227 213 148
3.1466691493988037 1.7830270528793335 6.949455738067627 193 162 142
-0.8380064368247986 1.2984682321548462 7.600975036621094 171 129 104
2.5574474334716797 -1.4030417203903198 5.760488510131836 10 36 23
-1.0805206298828125 1.2831083536148071 7.633293151855469 177 137 111
-1.0746994018554688 1.805583119392395 7.212135314941406 158 120 97
1.4277091026306152 2.8078153133392334 6.154000759124756 163 131 116
5.121811866760254 1.0407906770706177 7.32726526260376 169 134 114
2.0894734859466553 -1.0980478525161743 5.960144519805908 187 201 186
-0.8082690834999084 -1.1553661823272705 5.978196144104004 163 18 23
1.2511131763458252 -2.352276086807251 6.348211765289307 203 235 250
-0.46010106801986694 -1.8736858367919922 5.955198764801025 195 254 224
3.298400640487671 2.308009147644043 6.485405445098877 197 166 145
1.740837812423706 -1.4600406885147095 5.729875087738037 135 22 24
-0.4856438934803009 -1.837756633758545 5.928640842437744 196 252 217
-0.9054491519927979 -1.2221670150756836 5.930010795593262 113 17 21
4.23392391204834 1.718792200088501 6.891336917877197 190 161 143
-3.8526597023010254 2.9288322925567627 6.490167140960693 198 172 149
2.3944497108459473 -1.3803163766860962 5.768654823303223 2 24 11
1.829938530921936 2.6022443771362305 6.315737724304199 179 148 130
2.603209972381592 -1.3881748914718628 5.767950057983398 185 196 179
-1.214288353919983 -1.1588767766952515 5.975347995758057 208 203 235
1.5262563228607178 -2.271651029586792 6.238095283508301 189 243 227
3.513129234313965 2.860473871231079 6.018808364868164 183 147 123
0.9758257269859314 1.6892881393432617 7.141041278839111 209 167 142
-1.0148963928222656 -1.2718228101730347 5.906310558319092 89 0 0
1.7616171836853027 2.863870859146118 6.080242156982422 54 27 18
2.2493021488189697 -1.1687084436416626 5.893296718597412 31 55 42
-3.7945878505706787 0.8952590227127075 8.231230735778809 187 151 127
-2.6178903579711914 -1.1084505319595337 6.062610626220703 79 251 169
0.6841356158256531 -1.1468286514282227 5.942758083343506 10 0 0
-2.1481902599334717 1.988383173942566 7.122559547424316 155 118 99
1.8951661586761475 1.9413578510284424 6.8921966552734375 150 109 87
1.7617402076721191 0.004829209763556719 6.768789291381836 178 159 91
2.8678524494171143 -1.2963768243789673 5.835028648376465 0 13 0
2.343268632888794 -1.107947826385498 5.960212707519531 0 17 1
2.1932740211486816 2.783538341522217 6.112313747406006 36 22 13
0.925720751285553 -2.3097758293151855 6.31759786605835 117 142 149
1.0646005868911743 2.666219711303711 6.282957077026367 89 65 55
0.6904987692832947 2.106231212615967 6.777983665466309 184 152 129
-1.8167314529418945 -1.0093586444854736 6.0732574462890625 68 0 2
1.4787262678146362 -2.0417141914367676 6.020369052886963 112 134 147
-1.0240273475646973 2.7731404304504395 6.3268609046936035 212 180 157
0.22823457419872284 2.147745370864868 6.812400817871094 191 166 144
-0.3557530343532562 3.150543451309204 5.946355819702148 155 117 96
-4.66172981262207 1.4860470294952393 7.809868335723877 141 104 85
1.3374435901641846 1.872004747390747 6.991756439208984 130 93 67
-2.4257986545562744 1.8689746856689453 7.245853424072266 178 141 115
1.9247184991836548 -1.959898591041565 5.9228644371032715 188 161 154
2.5269076824188232 -1.2274824380874634 5.868487358093262 7 30 12
-2.016998767852783 2.3258979320526123 6.8044257164001465 161 123 100
2.6349947452545166 -1.3928042650222778 5.772683620452881 11 25 12
-1.3764114379882812 2.8333444595336914 6.3152174949646 189 155 127
2.260361909866333 -1.2792271375656128 5.837367057800293 13 31 19
1.8289660215377808 2.986771821975708 5.976019859313965 54 36 32
2.6385767459869385 -1.2612013816833496 5.860536575317383 0 13 0
-1.7215683460235596 -1.044998288154602 6.0574846267700195 189 197 220
0.462324857711792 1.7025103569030762 7.194876194000244 193 152 124
-1.4663230180740356 -1.198659896850586 5.9615936279296875 123 31 44
-2.2610487937927246 -2.3388524055480957 6.529476642608643 225 233 236
1.5874056816101074 1.6939163208007812 7.117286205291748 136 98 77
-1.1848233938217163 1.983665108680725 7.03965950012207 171 135 113
-1.0725384950637817 -1.2740954160690308 5.903351306915283 124 33 38
2.631023406982422 -1.3690814971923828 5.770463466644287 20 43 33
-0.41046085953712463 -1.8741207122802734 5.950410842895508 187 251 227
4.368782043457031 2.0868988037109375 6.593438148498535 168 136 115
3.7155697345733643 3.017340660095215 5.820384502410889 181 150 129
1.6360652446746826 2.8834030628204346 6.0812668800354 32 14 2
-1.0721513032913208 -1.2855831384658813 5.89154052734375 73 0 0
2.3261890411376953 -1.162601351737976 5.919583320617676 0 11 1
2.2649612426757812 -1.901759147644043 5.849491119384766 186 239 255
-0.3026253581047058 1.3242348432540894 7.587016582489014 177 136 108
-1.402924656867981 1.4166219234466553 7.556547164916992 163 128 108
0.9250895977020264 -0.5249999761581421 6.087276458740234 22 31 36
2.031810760498047 -1.2580571174621582 5.847209453582764 180 192 168
4.185929298400879 1.7039283514022827 6.935058116912842 184 158 135
2.8347184658050537 -1.8569837808609009 5.840305328369141 184 232 246
-3.213809013366699 2.9222946166992188 6.390835762023926 206 181 161
1.9100133180618286 -1.9785399436950684 5.946077823638916 225 236 238
2.124102830886841 -1.1004364490509033 5.954349040985107 175 184 165
2.8254008293151855 -1.957551121711731 5.933335781097412 184 227 246
-1.6825339794158936 -1.1181511878967285 6.027246952056885 62 3 5
-0.39228686690330505 1.9881561994552612 6.976914882659912 146 117 99
1.7385954856872559 1.7572987079620361 7.069705963134766 136 100 78
-2.644852876663208 -1.3313753604888916 5.928387641906738 0 105 37
2.0726966857910156 3.0715904235839844 5.857452392578125 43 24 18
1.9586849212646484 -1.2190252542495728 5.873977184295654 21 39 25
1.3581136465072632 -2.0727381706237793 6.035610198974609 165 189 199
1.9972124099731445 -1.2721484899520874 5.836137771606445 24 42 28
2.1734530925750732 -1.1049177646636963 5.959404468536377 0 9 0
-1.0993280410766602 -1.1035076379776 6.012413501739502 65 0 12
3.2722296714782715 2.0461015701293945 6.67585563659668 177 151 128
0.5475844740867615 -1.3096115589141846 5.863002300262451 186 131 77
-0.5401738882064819 1.8095093965530396 7.175899028778076 151 113 92
-0.6624281406402588 -1.9701839685440063 6.05511999130249 188 252 217
-1.6953483819961548 -0.4103323817253113 6.553145885467529 164 201 230
4.258677005767822 1.55020272731781 7.0445075035095215 200 174 157
1.452605962753296 -2.302158832550049 6.268165588378906 219 232 248
-1.0484637022018433 2.963418483734131 6.169031620025635 176 135 115
0.4867226481437683 2.9069931507110596 6.109213352203369 197 158 129
2.7010130882263184 -1.29084312915802 5.834529876708984 191 205 172
0.6017274260520935 2.5344221591949463 6.466567516326904 186 149 130
0.15283338725566864 2.2088940143585205 6.74138069152832 184 155 137
2.5269076824188232 -1.2274824380874634 5.868487358093262 7 30 12
1.4106216430664062 2.550140619277954 6.379186630249023 153 125 103
4.015128135681152 1.7691333293914795 6.927574634552002 130 106 96
-2.644852876663208 -1.3313753604888916 5.928387641906738 0 105 37
-2.529609203338623 1.997767686843872 7.148030757904053 197 163 138
-1.8500895500183105 -1.053558588027954 6.032227039337158 109 14 18
2.2192280292510986 -1.3234297037124634 5.802372932434082 186 201 178
2.7560513019561768 -1.2922413349151611 5.839272975921631 30 50 38
2.4585142135620117 -1.2060232162475586 5.890446186065674 191 202 188
2.878605842590332 2.5539722442626953 6.3048415184021 185 149 127
0.7405019998550415 2.437469005584717 6.520236015319824 136 107 89
3.600792169570923 1.443480134010315 7.1264753341674805 144 115 101
2.073878526687622 -1.2134259939193726 5.877847194671631 14 40 27
-1.1365094184875488 -1.142140507698059 5.979989528656006 88 0 3
4.065215587615967 1.7283841371536255 6.915563583374023 184 156 135
-1.3631435632705688 -1.0255067348480225 6.0732645988464355 223 221 235
0.8515320420265198 -2.084789752960205 6.097119331359863 108 120 146
-0.9399557113647461 -1.2171757221221924 5.956344127655029 193 146 166
2.362499237060547 1.6952662467956543 7.054569721221924 203 168 146
4.108990669250488 1.4015666246414185 7.116992473602295 203 178 156
2.542294979095459 -1.3803915977478027 5.769443988800049 177 194 178
2.151508331298828 -1.3106266260147095 5.820559024810791 205 218 175
-1.0551997423171997 2.7860958576202393 6.309670448303223 209 173 149
4.258677005767822 1.55020272731781 7.0445075035095215 200 174 157
2.144216299057007 -1.435542106628418 5.7340922355651855 97 0 0
1.4226921796798706 -2.335775136947632 6.291324615478516 143 132 140
-1.035691261291504 -1.1972081661224365 5.9497175216674805 231 221 230
3.6262636184692383 1.1080520153045654 7.531416893005371 156 125 105
2.3916852474212646 -1.4820406436920166 5.716508388519287 138 26 25
-2.58480167388916 -1.0431808233261108 6.098124980926514 0 117 36
4.2726054191589355 2.3037331104278564 6.4543538093566895 183 151 136
-1.1637189388275146 -1.246437907218933 5.921776294708252 194 212 234
1.3878238201141357 1.8597548007965088 6.983518123626709 178 139 108
-1.7046215534210205 2.5888946056365967 6.562473773956299 113 86 67
0.5417499542236328 2.2684671878814697 6.699423313140869 179 152 131
-1.6165231466293335 1.8484774827957153 7.168209075927734 207 172 150
-0.3982749283313751 1.9520512819290161 7.023438453674316 193 161 138
1.663475513458252 3.100733518600464 5.903338432312012 237 199 176
2.2275867462158203 -0.9334978461265564 6.072532653808594 56 151 31
2.7691237926483154 -1.2814241647720337 5.837320804595947 185 199 174
1.3581461906433105 -2.0361993312835693 6.024143695831299 202 235 250
2.7560513019561768 -1.2922413349151611 5.839272975921631 30 50 38
3.0174646377563477 2.8031535148620605 5.986403465270996 104 77 58
-2.6178903579711914 -1.1084505319595337 6.062610626220703 79 251 169
2.7974231243133545 -1.4210014343261719 5.755815029144287 0 10 0
2.872438430786133 0.6791045069694519 7.240042209625244 30 41 25
2.060641050338745 1.7604928016662598 7.004899024963379 166 127 98
1.7366305589675903 2.9015896320343018 6.028462886810303 151 118 103
1.447935700416565 1.539217472076416 7.26641321182251 183 141 116
2.9266550540924072 2.627378463745117 6.231468677520752 159 121 100
-2.6113121509552 -1.3635610342025757 5.888885498046875 0 114 53
2.5807719230651855 -1.2369011640548706 5.870224475860596 12 26 13
2.8347184658050537 -1.8569837808609009 5.840305328369141 184 232 246
-3.896578073501587 2.22971248626709 7.077511787414551 178 148 124
-0.39833754301071167 3.0182344913482666 6.043989658355713 144 108 84
-0.9660874009132385 -1.2189031839370728 5.954438209533691 107 17 19
2.1582248210906982 -1.3444187641143799 5.807127952575684 83 93 84
1.9320160150527954 2.729738235473633 6.181069374084473 118 94 82
-0.8773478269577026 -1.2409930229187012 5.934802532196045 110 18 21
-0.5606376528739929 1.6149874925613403 7.3293280601501465 201 166 136
0.7182568311691284 -1.1443681716918945 5.9669189453125 19 2 0
2.1697065830230713 -1.2937653064727783 5.8342204093933105 183 208 169
-2.30081844329834 2.1151790618896484 6.989169597625732 141 111 87
2.7537925243377686 -1.4581810235977173 5.719040393829346 180 193 163
2.828245162963867 -1.361309289932251 5.783411979675293 189 201 189
2.4447834491729736 -1.197195291519165 5.8882646560668945 183 197 182
0.19260041415691376 -2.5281014442443848 6.587038993835449 144 183 164
2.1037070751190186 -1.1258281469345093 5.932636737823486 176 188 164
1.468225359916687 -2.3012423515319824 6.261826992034912 167 142 148
-0.08829227834939957 3.1992640495300293 5.887606620788574 109 81 70
-0.10659798979759216 -1.3138437271118164 5.859391689300537 109 6 33
0.19260041415691376 -2.5281014442443848 6.587038993835449 144 183 164
-2.3863978385925293 -1.3854148387908936 5.877203941345215 2 132 72
-2.9266517162323 2.7475674152374268 6.501565456390381 182 152 128
-0.8558760285377502 -1.2444747686386108 5.919187068939209 121 26 30
1.0178897380828857 1.5118013620376587 7.324002742767334 166 125 97
-0.05650471895933151 2.122502088546753 6.856244087219238 181 153 131
2.092221736907959 2.3259384632110596 6.548203945159912 177 141 117
2.0677380561828613 1.7807811498641968 7.013809680938721 186 151 123
-1.3885135650634766 -1.9146751165390015 6.032031059265137 187 254 210
-2.9686439037323 1.8145159482955933 7.32753849029541 189 155 130
1.9799811840057373 -1.4138671159744263 5.750649929046631 183 195 183
2.290219306945801 0.22100859880447388 6.889593124389648 182 123 33
0.11712542921304703 3.055259943008423 6.0012078285217285 178 140 117
2.7178337574005127 -1.5076097249984741 5.697153568267822 17 39 26
2.160263776779175 -1.6070407629013062 5.6440749168396 119 132 123
3.586555004119873 1.9344297647476196 6.819064617156982 176 145 127
2.4060513973236084 2.729808807373047 6.123727798461914 99 64 44
-0.638100266456604 -1.9396945238113403 6.0188469886779785 0 164 79
2.1582248210906982 -1.3444187641143799 5.807127952575684 83 93 84
-0.8075348734855652 1.6035138368606567 7.331065654754639 189 150 121
-0.35884538292884827 1.5319041013717651 7.351687908172607 179 138 110
-2.566816806793213 -1.6305643320083618 5.89621114730835 21 204 100
1.7363479137420654 2.956083059310913 5.9909820556640625 129 98 70
-1.2204275131225586 -2.223658561706543 6.325228214263916 220 236 88
-2.623380184173584 -1.3018393516540527 5.923294544219971 188 237 241
1.535544753074646 2.5420830249786377 6.380507469177246 138 118 109
1.2273352146148682 -2.103296995162964 6.094485282897949 110 146 160
1.4256194829940796 2.8271644115448 6.119233131408691 156 127 109
-1.3631435632705688 -1.0255067348480225 6.0732645988464355 223 221 235
-0.9197807312011719 2.8524742126464844 6.245401382446289 190 156 131
2.563460111618042 -1.2211792469024658 5.8652191162109375 199 208 181
1.915757417678833 -2.069977045059204 6.08047342300415 208 167 137
1.4685002565383911 2.071216344833374 6.8285813331604 128 85 68
1.2860420942306519 -2.0238518714904785 6.024168014526367 124 154 165
0.4112541377544403 1.6852422952651978 7.238229274749756 206 169 140
2.283076524734497 -1.098397970199585 5.948557376861572 10 34 21
2.8227031230926514 -2.024501085281372 5.987630367279053 183 229 242
1.2717281579971313 -2.3283562660217285 6.314910888671875 200 236 250
2.9624547958374023 2.5582737922668457 6.269570827484131 178 143 121
2.197035789489746 -1.4811135530471802 5.717855930328369 215 225 214
0.9469714164733887 1.9331951141357422 7.008233070373535 195 154 126
2.181647777557373 -0.9966562986373901 6.035647392272949 7 47 10
2.197035789489746 -1.4811135530471802 5.717855930328369 215 225 214
-0.8774548768997192 -1.1816340684890747 5.952280521392822 100 9 18
3.8995089530944824 1.9043692350387573 6.822258949279785 161 130 112
0.4978872835636139 -1.9761483669281006 6.013711929321289 193 234 254
-0.8513696789741516 -1.2374752759933472 5.927048206329346 92 7 14
-1.5915656089782715 -2.163334846496582 6.2833943367004395 42 50 39
2.2192280292510986 -1.3234297037124634 5.802372932434082 186 201 178
0.3267899453639984 -1.1730929613113403 5.94462776184082 146 52 50
2.3256514072418213 -1.1753751039505005 5.898788928985596 182 191 170
-1.0556844472885132 -1.9212299585342407 6.0260515213012695 192 254 213
-1.2201355695724487 -1.9609580039978027 6.055507183074951 3 224 119
1.2191959619522095 -2.0134646892547607 5.939924240112305 164 201 220
2.095386505126953 -1.4879164695739746 5.702624320983887 134 23 32
2.8041906356811523 2.5860300064086914 6.260405540466309 181 143 120
3.5745134353637695 2.984708786010742 5.875533580780029 166 131 109
-2.588136672973633 1.9631197452545166 7.161576747894287 191 156 128
3.47979998588562 2.1594278812408447 6.631106853485107 92 63 55
0.5165571570396423 -2.1354427337646484 6.155014991760254 192 233 253
-1.6825339794158936 -1.1181511878967285 6.027246952056885 62 3 5
2.095386505126953 -1.4879164695739746 5.702624320983887 134 23 32
0.8519744277000427 2.6516458988189697 6.319748878479004 176 139 120
2.684295654296875 -2.0914828777313232 6.050115585327148 68 100 123
-2.2804977893829346 0.6333343982696533 7.3632612228393555 43 65 27
0.8690808415412903 -2.308419942855835 6.32546329498291 134 134 122
0.026953106746077538 -2.3990936279296875 6.430840969085693 106 229 166
2.0351407527923584 2.664433240890503 6.219541549682617 74 52 41
5.638189315795898 0.10904301702976227 8.092657089233398 140 112 101
-1.3085548877716064 -2.144681215286255 6.241826057434082 235 234 64
1.7411398887634277 -1.4056872129440308 5.766125679016113 0 94 2
2.121814012527466 -1.2785296440124512 5.834812164306641 181 196 167
-1.3445253372192383 -1.9540936946868896 6.060676097869873 18 222 127
-0.8773561716079712 -1.953529715538025 6.042153835296631 103 221 160
-0.593312680721283 1.3976249694824219 7.496978282928467 130 89 69
2.6451210975646973 -1.4191405773162842 5.748605251312256 17 45 33
2.2718265056610107 -1.1828984022140503 5.911102294921875 197 210 184
1.7172132730484009 -2.3730013370513916 6.340175628662109 145 173 184
1.7014470100402832 -2.0466737747192383 5.986520767211914 193 236 255
-2.4042186737060547 -1.735769510269165 5.940069675445557 70 79 78
2.297600507736206 2.804155111312866 6.107299327850342 51 23 9
1.3870583772659302 0.3003758490085602 7.000141620635986 102 76 59
-1.5785863399505615 -1.0433001518249512 6.067244529724121 179 107 118
1.2281643152236938 2.2642269134521484 6.628494739532471 160 133 112
-1.3639336824417114 2.345452070236206 6.740664005279541 179 141 118
-0.7603663206100464 2.587745189666748 6.497647285461426 128 91 72
0.06075190007686615 1.7347874641418457 7.1948442459106445 183 148 129
1.6072431802749634 -2.2348711490631104 6.18116569519043 192 248 239
-1.3828413486480713 -1.1455514430999756 5.988034248352051 67 5 10
-0.5785220265388489 2.516164779663086 6.524841785430908 204 170 145
0.7915385365486145 2.1042673587799072 6.8175129890441895 122 94 80
1.7411398887634277 -1.4056872129440308 5.766125679016113 0 94 2
2.885990619659424 2.1846089363098145 6.5992021560668945 156 128 107
-1.2471246719360352 -1.1737358570098877 5.9661970138549805 189 197 220
-1.8456165790557861 2.1577134132385254 6.930340766906738 181 146 126
-2.440756320953369 -1.3213515281677246 5.8989410400390625 12 133 54
2.1734530925750732 -1.1049177646636963 5.959404468536377 0 9 0
1.3899459838867188 -2.104977607727051 6.083774089813232 209 239 249
2.659205913543701 -1.3644943237304688 5.78157377243042 19 41 29
2.7537925243377686 -1.4581810235977173 5.719040393829346 180 193 163
2.5359046459198 -1.207094669342041 5.894893646240234 2 20 4
2.0871922969818115 -1.0557953119277954 5.969981670379639 21 41 30
-1.1305620670318604 -1.0597444772720337 6.052270889282227 94 10 25
-4.035466194152832 2.4420199394226074 6.9105143547058105 119 91 79
0.697622537612915 2.0241124629974365 6.855861663818359 146 115 97
-0.9442652463912964 1.6656814813613892 7.323721408843994 207 175 152
-0.7689213752746582 -1.9470871686935425 6.039960861206055 192 254 215
2.9047091007232666 1.4478020668029785 7.2499494552612305 134 111 103
3.745326280593872 1.4664809703826904 7.161937236785889 160 129 111
1.535544753074646 2.5420830249786377 6.380507469177246 138 118 109
-0.9333391189575195 -1.172047734260559 5.962296962738037 99 19 28
0.100327268242836 2.1913697719573975 6.780999183654785 175 147 125
-2.5787665843963623 -1.0174452066421509 6.118151664733887 99 255 181
3.9659054279327393 2.455888271331787 6.334933280944824 197 167 141
2.1091744899749756 1.802168846130371 7.025322914123535 192 152 126
2.4500977993011475 1.5875614881515503 7.13313627243042 168 126 101
-0.7356411218643188 2.682326555252075 6.403903961181641 137 96 76
-1.50676691532135 2.483376979827881 6.626134395599365 181 145 121
0.7868948578834534 -2.3066320419311523 6.320302963256836 227 233 223
-2.588136672973633 1.9631197452545166 7.161576747894287 191 156 128
3.5351827144622803 2.3018622398376465 6.417659759521484 165 137 116
1.959734320640564 -1.476343035697937 5.716700077056885 91 4 0
-2.9266517162323 2.7475674152374268 6.501565456390381 182 152 128
3.1364238262176514 2.72762131690979 6.072723388671875 136 98 75
0.6474668383598328 -2.4438228607177734 6.473939895629883 59 180 109
2.1669976711273193 -1.1591119766235352 5.920512676239014 9 25 25
2.44627046585083 2.0981884002685547 6.701094150543213 182 151 130
1.230255365371704 -2.0616226196289062 6.0588765144348145 87 116 132
-2.461235761642456 3.078737497329712 6.156638145446777 183 148 126
0.7072766423225403 -2.1214663982391357 6.137070178985596 60 107 159
-2.4045305252075195 -1.350311040878296 5.871691703796387 171 219 229
1.3281863927841187 -2.0530848503112793 6.045896530151367 113 145 160
2.3876683712005615 -1.9883294105529785 5.929511547088623 191 239 255
3.020695686340332 1.6989103555679321 7.002120494842529 172 143 125
2.0589733123779297 -1.3284610509872437 5.826648235321045 186 198 186
-3.188704252243042 2.8771040439605713 6.429356098175049 182 150 125
-1.3063498735427856 -1.2389026880264282 5.927882194519043 130 41 45
-0.9824044108390808 -1.20059072971344 5.958249092102051 163 201 224
0.962489902973175 -2.354257822036743 6.371760845184326 228 224 179
2.531754493713379 -1.172318458557129 5.912615776062012 186 199 181
3.2490572929382324 1.7352513074874878 6.942022800445557 124 100 90
2.0848028659820557 -1.986692190170288 5.950026035308838 74 109 128
-1.3956348896026611 -1.192134976387024 5.963607311248779 82 0 11
3.0770981311798096 1.9819296598434448 6.746206283569336 180 147 128
-3.289984941482544 -1.3491491079330444 5.940841197967529 168 219 214
-0.5941254496574402 -1.9595805406570435 6.039366722106934 190 255 213
1.4201993942260742 1.5245013236999512 7.270823955535889 172 131 101
-2.515202283859253 3.0161569118499756 6.291369438171387 170 140 129
3.761176824569702 2.3584139347076416 6.439077377319336 157 125 104
-0.24282068014144897 -1.970205307006836 6.0342607498168945 204 248 221
2.7544734477996826 2.4919633865356445 6.3777265548706055 169 133 109
1.012933611869812 1.8885384798049927 7.0230560302734375 156 114 92
1.2593450546264648 -2.049896717071533 6.042175769805908 105 151 167
1.2334725856781006 1.7812421321868896 7.100228786468506 190 149 121
2.4040367603302 -1.599168062210083 5.6409807205200195 200 193 187
-3.890062093734741 1.6336075067520142 7.586360931396484 201 166 138
-0.23472069203853607 1.1436312198638916 7.752664566040039 58 47 41
-2.1325461864471436 1.8048312664031982 7.296579360961914 206 172 147
-4.572811603546143 1.387309193611145 7.849257946014404 211 179 154
1.262668490409851 2.716817617416382 6.224165916442871 65 35 25
-1.7769628763198853 2.2346675395965576 6.905230522155762 172 131 111
0.2802431881427765 1.7773168087005615 7.104312419891357 194 159 131
2.0100951194763184 -1.323075771331787 5.808143138885498 183 195 181
-2.727654457092285 1.6091679334640503 7.48304557800293 198 164 137
2.5677154064178467 -1.2703465223312378 5.8264570236206055 193 208 177
3.4743123054504395 1.9069279432296753 6.828924179077148 182 150 129
2.0057952404022217 -1.1941871643066406 5.883650302886963 0 24 11
2.0726966857910156 3.0715904235839844 5.857452392578125 43 24 18
2.4176197052001953 -1.581465721130371 5.654077529907227 151 34 42
1.6084551811218262 -2.2361927032470703 6.217935562133789 13 135 78
2.4448890686035156 -1.4990670680999756 5.698789596557617 142 31 37
-2.1348350048065186 0.4624512791633606 7.2389984130859375 206 213 143
1.0591801404953003 1.7555636167526245 7.117751598358154 161 120 100
-2.1841254234313965 -0.09861757606267929 6.751131534576416 160 26 27
2.795511245727539 -1.3876930475234985 5.759495258331299 37 60 44
-1.4170793294906616 3.1923580169677734 5.973484992980957 140 112 90
2.1669976711273193 -1.1591119766235352 5.920512676239014 9 25 25
2.9200515747070312 -1.1981827020645142 5.94996452331543 71 172 52
-2.4343104362487793 0.7988033890724182 7.523826599121094 34 47 37
0.8222069144248962 -2.1411855220794678 6.156520843505859 184 225 247
-1.6046887636184692 2.295598030090332 6.820350646972656 176 139 112
2.6282362937927246 2.6382699012756348 6.190306186676025 164 130 105
0.7078933119773865 -1.0921028852462769 5.977010250091553 191 151 90
4.1410956382751465 2.3834023475646973 6.3569254875183105 174 143 123
2.754645586013794 -1.4311742782592773 5.762487888336182 5 28 18
1.7014470100402832 -2.0466737747192383 5.986520767211914 193 236 255
-0.509781002998352 -1.8714933395385742 5.951873779296875 195 255 231
-2.060084342956543 2.0141005516052246 7.068000316619873 148 113 94
2.90096378326416 2.0306971073150635 6.725773811340332 198 170 148
-1.8789088726043701 2.8069379329681396 6.36960506439209 189 159 135
-3.0899157524108887 -1.7613083124160767 6.007387161254883 208 166 92
1.8047643899917603 2.588585138320923 6.312582969665527 201 175 152
-1.5285533666610718 -1.9332038164138794 6.058148384094238 189 255 219
-4.409331798553467 2.1223270893096924 7.231354713439941 163 125 102
2.4500977993011475 1.5875614881515503 7.13313627243042 168 126 101
0.8376224637031555 -1.222360372543335 5.8974289894104 17 3 3
0.33215394616127014 -2.5687904357910156 6.629298210144043 220 243 217
-0.9824044108390808 -1.20059072971344 5.958249092102051 163 201 224
0.21515944600105286 3.019259214401245 6.039030075073242 127 89 70
3.513352394104004 1.745827555656433 6.9700703620910645 186 158 144
1.109001636505127 2.462364673614502 6.462403774261475 170 142 121
0.060602691024541855 3.149794101715088 5.904632091522217 108 84 72
1.3872052431106567 2.0158627033233643 6.858607769012451 177 133 108
-0.9878684282302856 -1.2602640390396118 5.903398513793945 170 210 236
2.3662185668945312 1.6927117109298706 7.007400035858154 180 144 118
0.03205780312418938 -2.266242742538452 6.321011066436768 164 184 115
-4.27561092376709 0.5386486053466797 8.495772361755371 169 133 109
2.508331060409546 2.269563913345337 6.5864129066467285 196 162 137
-0.940174400806427 1.4543609619140625 7.508490085601807 184 147 120
3.3131306171417236 2.649527072906494 6.0801568031311035 168 136 113
1.9586849212646484 -1.2190252542495728 5.873977184295654 21 39 25
-0.4895474314689636 -1.9607793092727661 6.036685943603516 192 249 208
2.0162007808685303 -1.214975118637085 5.863570690155029 175 189 166
3.2609333992004395 1.64191734790802 7.011023044586182 168 137 116
3.1887059211730957 1.797763466835022 6.920156002044678 178 149 131
2.7058701515197754 -1.2389819622039795 5.866767883300781 0 15 0
1.863707184791565 -2.0433547496795654 5.997386932373047 193 155 134
0.8865790963172913 -1.236508846282959 5.892070293426514 159 117 75
2.1572532653808594 -1.11959969997406 5.945537567138672 217 234 216
-0.3937102258205414 -1.8418689966201782 5.927241802215576 184 251 210
-0.9140177965164185 2.9041337966918945 6.233975410461426 139 106 87
-3.311753273010254 1.8590247631072998 7.3617987632751465 198 162 136
