ply
format ascii 1.0
element vertex 108
property float x
property float y
property float z
property uchar red
property uchar green
property uchar blue
end_header
-0.31314602494239807 -0.8458272814750671 6.364038467407227 198 204 228
-0.31314602494239807 -0.8458272814750671 6.364038467407227 198 204 228
0.12765289843082428 -0.9470669627189636 6.293864727020264 126 16 19
0.442861407995224 -0.25344082713127136 7.116067409515381 18 155 65
0.40642666816711426 -0.8358888030052185 6.3962554931640625 213 174 79
-0.1747913807630539 -0.16449113190174103 7.9656243324279785 192 186 188
0.0683629959821701 -0.7135153412818909 6.503371715545654 136 21 26
0.20447954535484314 -0.4339453876018524 7.621938228607178 154 41 43
0.16556935012340546 -0.9527702331542969 6.29814338684082 194 211 231
-0.6040383577346802 0.027910707518458366 7.197908878326416 42 173 77
-0.47469085454940796 -0.6371893882751465 6.558791160583496 190 181 174
-0.5274278521537781 -0.046106453984975815 7.13407564163208 20 164 66
-0.08465340733528137 -0.2984127998352051 9.529430389404297 194 176 162
0.8802629709243774 0.8675528764724731 8.135634422302246 163 86 40
0.16556935012340546 -0.9527702331542969 6.29814338684082 194 211 231
0.1073940247297287 0.8656510710716248 8.116289138793945 131 68 24
0.30893030762672424 0.6875580549240112 7.901678085327148 211 194 150
-0.08457713574171066 -0.5371447801589966 6.6678080558776855 117 13 10
1.054624080657959 -0.5182566046714783 6.728633880615234 16 17 12
-0.2999511659145355 -0.3606725335121155 9.168573379516602 189 176 157
1.0136348009109497 -0.5335713624954224 6.6937384605407715 12 9 0
-0.58295077085495 -0.4129910171031952 8.073088645935059 152 33 37
1.2557281255722046 -0.1367802619934082 7.080233573913574 209 202 158
0.1810682862997055 -0.515188992023468 6.656805515289307 190 210 235
0.8967477083206177 0.20300450921058655 7.432851314544678 106 196 83
0.1810682862997055 -0.515188992023468 6.656805515289307 190 210 235
-0.2827959954738617 -1.005476713180542 8.322198867797852 149 29 28
0.43122631311416626 -0.09001308679580688 7.092334747314453 207 179 70
0.16340038180351257 -0.7664106488227844 6.3913068771362305 190 210 234
0.07319001853466034 0.9434321522712708 8.149662017822266 172 95 49
0.43122631311416626 -0.09001308679580688 7.092334747314453 207 179 70
0.4841083586215973 -0.04568718373775482 7.162556171417236 196 129 58
-0.10346619039773941 -0.6971792578697205 6.508945465087891 190 192 191
0.16340038180351257 -0.7664106488227844 6.3913068771362305 190 210 234
0.5055896639823914 1.0351065397262573 8.313905715942383 50 49 29
0.07768712937831879 -0.6701433062553406 6.55319881439209 132 29 33
0.7584303021430969 -1.2107515335083008 6.106894016265869 35 46 64
-0.039241522550582886 -1.1073552370071411 6.134335041046143 146 31 38
1.2417728900909424 -0.2483871877193451 6.9338297843933105 212 164 62
0.19999094307422638 -0.916024923324585 6.308304786682129 148 32 33
0.7084954380989075 0.8301647305488586 8.068784713745117 203 144 76
-0.05054882541298866 -0.13335490226745605 7.051535606384277 33 166 73
0.8581809401512146 -0.44438251852989197 6.8231353759765625 188 125 32
0.3644053637981415 0.23581324517726898 7.464133262634277 40 153 61
1.0028399229049683 -0.5033751726150513 6.728334903717041 33 34 39
0.32994887232780457 -1.1634204387664795 6.127552509307861 8 136 43
-0.3448171317577362 -0.362154483795166 6.630020618438721 191 194 203
-0.47629493474960327 0.06620374321937561 7.256031036376953 17 149 47
0.005659092683345079 0.7075625061988831 7.880258083343506 213 174 71
0.670790433883667 -0.1284104287624359 7.066234111785889 223 194 66
0.9574121236801147 -0.49439767003059387 6.744868755340576 81 124 166
0.2811545729637146 -0.6634860038757324 6.548505783081055 151 104 60
-0.12721678614616394 -0.625117301940918 6.575791835784912 187 185 173
0.6445282697677612 0.47846412658691406 7.721761226654053 189 111 62
-0.44636473059654236 -0.12176932394504547 7.037019729614258 5 150 59
0.15631501376628876 0.28262606263160706 7.491750240325928 210 202 153
0.19999094307422638 -0.916024923324585 6.308304786682129 148 32 33
-0.47766125202178955 0.03225402161478996 7.213678359985352 18 129 35
0.3172549903392792 -0.5143970251083374 6.67781925201416 204 201 222
-0.2240779846906662 0.288394957780838 7.510141849517822 218 198 135
1.0252835750579834 0.3628299832344055 7.584595203399658 202 140 89
-0.10039932280778885 -0.72836834192276 6.478269100189209 187 190 197
-0.1263982653617859 -0.7035344243049622 6.4879150390625 200 208 219
0.06465516239404678 -0.7615793347358704 6.505717754364014 146 32 32
1.0703743696212769 0.3915846347808838 7.607071399688721 181 115 67
0.3172549903392792 -0.5143970251083374 6.67781925201416 204 201 222
0.8655086755752563 -1.0999984741210938 6.2132368087768555 207 165 45
0.629181444644928 -1.007434368133545 6.282810688018799 27 34 50
0.12908728420734406 -0.11477949470281601 7.052222728729248 17 152 58
0.9729418158531189 -0.6581652760505676 6.5866594314575195 177 145 62
1.0194180011749268 0.42401066422462463 7.62195348739624 202 132 80
-0.6532785296440125 0.15915895998477936 7.334686279296875 41 139 38
0.012157155200839043 0.012743843719363213 7.231963157653809 28 149 52
1.0881420373916626 0.7027304172515869 7.945634841918945 216 180 84
0.5360429286956787 -0.40637195110321045 6.720067977905273 207 135 59
0.2811545729637146 -0.6634860038757324 6.548505783081055 151 104 60
0.3221249580383301 -1.189228892326355 6.122820854187012 8 159 62
0.08450036495923996 0.02609354257583618 7.207857131958008 30 161 65
0.36402976512908936 0.6665436029434204 7.888012409210205 196 175 120
0.7798340320587158 -1.1239808797836304 6.192703723907471 30 32 44
0.049363188445568085 0.6433705687522888 7.87773323059082 214 163 71
0.6986762881278992 -1.0844478607177734 6.199380397796631 191 138 62
0.37235227227211 -0.5356493592262268 6.663321495056152 26 24 27
0.30504700541496277 -0.6856826543807983 6.531656265258789 208 162 84
-0.047900959849357605 -0.5843126773834229 6.532404899597168 148 32 33
0.5141900181770325 0.06487444043159485 7.248589992523193 103 183 68
0.053270310163497925 0.047367826104164124 7.249751567840576 208 185 73
0.2806093096733093 -0.9620770215988159 6.288703441619873 193 213 237
0.1712108552455902 0.6231427788734436 7.903951644897461 188 116 66
0.053270310163497925 0.047367826104164124 7.249751567840576 208 185 73
-0.6744253039360046 0.26769405603408813 7.472891330718994 205 163 65
-0.6487497091293335 -0.27376052737236023 6.917745590209961 144 28 28
0.6991143226623535 -0.19252429902553558 7.005539417266846 202 130 58
0.3644053637981415 0.23581324517726898 7.464133262634277 40 153 61
0.04554886370897293 0.04730131849646568 7.240743637084961 207 184 72
0.6971399784088135 -1.0983752012252808 6.198224067687988 72 43 11
0.4436679780483246 -0.5639499425888062 6.635862350463867 20 20 22
0.45532238483428955 0.3346094489097595 7.521219730377197 216 198 136
-0.5128949284553528 -0.22010652720928192 6.871706485748291 124 41 35
0.6938907504081726 -1.1145833730697632 6.187601566314697 206 156 67
0.676978588104248 -1.1370660066604614 6.167419910430908 9 13 16
0.22405296564102173 0.7704453468322754 8.054248809814453 182 125 48
0.676978588104248 -1.1370660066604614 6.167419910430908 9 13 16
-0.12427851557731628 -0.7134111523628235 6.492983818054199 197 214 232
-0.6361978054046631 0.12940020859241486 7.321929931640625 14 143 50
-0.3577714264392853 -0.48326924443244934 6.689012050628662 153 37 38
0.6294927000999451 0.29784291982650757 7.496663570404053 207 168 75
-0.20809367299079895 -0.987972617149353 6.223502159118652 153 29 29
