ply
format ascii 1.0
element vertex 713
property float x
property float y
property float z
property uchar red
property uchar green
property uchar blue
end_header
4.1122822761535645 1.0418142080307007 7.896624565124512 120 87 70
1.789982557296753 2.3813693523406982 7.2233452796936035 131 94 76
2.3189094066619873 2.446892261505127 7.123950004577637 102 75 68
2.3528192043304443 2.915822744369507 6.754483699798584 163 131 116
-1.0818073749542236 -1.2849082946777344 6.2323317527771 203 208 211
0.06186772137880325 -2.2198429107666016 6.47977876663208 79 94 51
-2.746187210083008 -1.2397445440292358 6.303834438323975 0 105 16
2.9309754371643066 -1.4810214042663574 6.0794219970703125 7 25 13
-1.5839654207229614 1.8080148696899414 7.862410068511963 201 163 140
-2.5376780033111572 -1.3535858392715454 6.178796291351318 174 221 227
-0.5758242607116699 1.581591248512268 7.956381320953369 144 109 89
-1.0438307523727417 -1.2713623046875 6.234069347381592 170 210 236
0.3423057794570923 2.759073495864868 7.026329040527344 147 106 84
1.6495246887207031 1.8223365545272827 7.631579399108887 185 141 112
2.827751636505127 -1.4507713317871094 6.077278137207031 32 48 35
-0.03148491308093071 1.7013262510299683 7.812383651733398 180 143 117
2.782562255859375 -1.277529001235962 6.2244696617126465 187 201 178
2.47493314743042 -1.592961311340332 5.99784517288208 147 24 27
4.423984050750732 1.8189043998718262 7.501352310180664 202 174 152
-2.7638986110687256 -1.4262657165527344 6.168705463409424 3 159 76
2.5660040378570557 -1.2250205278396606 6.247939109802246 183 197 182
-1.166330099105835 -1.1147446632385254 6.352352619171143 93 3 12
-2.6640784740448 -1.367065191268921 6.189389705657959 3 175 75
2.4476749897003174 -1.356019139289856 6.169137001037598 17 38 29
0.7588655948638916 2.2831273078918457 7.384851932525635 179 150 136
-1.356805443763733 -1.087562084197998 6.37493896484375 117 25 28
2.2923760414123535 1.750116229057312 7.661496162414551 89 62 45
-0.8668403029441833 -1.2665432691574097 6.255039691925049 109 16 27
2.273057222366333 -1.030259132385254 6.3943939208984375 194 216 195
2.7994725704193115 -1.5102852582931519 6.051419258117676 186 201 182
2.976396322250366 1.8101515769958496 7.592625141143799 192 163 145
-0.3023424446582794 1.6505540609359741 7.897302150726318 182 141 113
-1.2039430141448975 -1.2393916845321655 6.262972831726074 200 205 225
2.7322559356689453 -1.4188897609710693 6.110659599304199 185 196 179
1.9869853258132935 -2.001861810684204 6.250450134277344 193 236 255
1.7472866773605347 3.0774121284484863 6.6558380126953125 50 34 21
2.594658851623535 2.644986152648926 6.9918036460876465 180 145 123
3.753818988800049 3.30757212638855 6.328098773956299 155 119 95
4.606416702270508 1.525792121887207 7.65885066986084 199 177 156
1.472191572189331 -1.1717828512191772 6.29052209854126 0 7 12
-4.508958339691162 1.6741700172424316 8.216187477111816 129 96 77
2.490703821182251 -1.6616617441177368 6.002362251281738 200 233 214
-3.0138425827026367 1.8699254989624023 7.870021820068359 171 131 105
2.7690396308898926 -1.4831912517547607 6.060561180114746 8 34 21
-1.417424201965332 -1.025112509727478 6.4244866371154785 121 26 32
-1.2289971113204956 -1.057126522064209 6.401229381561279 93 12 18
0.8100758790969849 -1.162873387336731 6.306843280792236 21 19 22
2.473731756210327 2.003688335418701 7.482684135437012 192 160 139
0.29189908504486084 1.4551136493682861 8.026786804199219 150 104 81
2.451890468597412 -1.5649645328521729 6.007038116455078 182 190 177
2.395301103591919 -1.5515673160552979 6.029796600341797 182 195 185
-1.2905622720718384 -1.179506778717041 6.310158729553223 119 32 40
2.0840506553649902 3.2165462970733643 6.5302414894104 41 26 21
0.5026248693466187 1.8925808668136597 7.677010536193848 187 151 127
4.943517208099365 1.8224676847457886 7.403717517852783 194 166 142
-2.485996723175049 2.1836626529693604 7.627475738525391 115 84 66
-1.676084041595459 -1.0343867540359497 6.4246344566345215 114 19 25
-1.3408228158950806 -1.0625450611114502 6.390530586242676 163 197 232
2.804131269454956 -1.3864426612854004 6.132430553436279 167 188 171
-2.6804513931274414 1.828626275062561 7.889192581176758 197 161 135
3.446000814437866 2.1442224979400635 7.257813930511475 96 74 61
3.8069872856140137 1.5647649765014648 7.68182897567749 183 155 134
-1.186073899269104 -1.2578604221343994 6.258090972900391 176 206 232
-2.018998384475708 -1.0392571687698364 6.421663761138916 98 14 14
-3.2293307781219482 1.1237040758132935 8.403592109680176 30 70 36
1.53410005569458 1.2526322603225708 8.065202713012695 142 98 73
1.4673774242401123 -1.2310311794281006 6.245288848876953 2 13 19
-0.29446807503700256 1.8877719640731812 7.7046027183532715 181 146 124
-1.318281888961792 -1.2311121225357056 6.275569915771484 100 14 15
1.8299803733825684 2.0881588459014893 7.450238227844238 122 85 59
-1.8159632682800293 -1.0500074625015259 6.40202522277832 189 197 220
-1.0751136541366577 -1.0884257555007935 6.393355369567871 165 201 233
-0.2881212532520294 1.6860750913619995 7.859521865844727 95 68 51
4.573490619659424 1.8058054447174072 7.507804870605469 198 175 157
-2.5376780033111572 -1.3535858392715454 6.178796291351318 174 221 227
2.8524580001831055 -1.540428876876831 6.029544353485107 17 39 26
-1.1639575958251953 -1.280379056930542 6.230292797088623 110 18 23
-2.6461470127105713 -1.3437567949295044 6.203176021575928 164 219 216
-2.485996723175049 2.1836626529693604 7.627475738525391 115 84 66
-0.8953854441642761 -1.1871137619018555 6.307719707489014 173 202 234
3.970353126525879 1.43616783618927 7.783074855804443 208 181 160
2.4089367389678955 -1.2317276000976562 6.24905252456665 7 14 6
-0.6017345190048218 2.628530740737915 7.131980895996094 196 162 137
1.2139312028884888 2.772679567337036 6.928404331207275 168 136 115
0.8849257826805115 -2.1930646896362305 6.426621437072754 188 234 255
1.2757996320724487 1.522762656211853 7.8579888343811035 153 112 90
-1.075181245803833 -1.177753210067749 6.309046268463135 68 0 8
0.9845630526542664 0.24934625625610352 7.394374847412109 24 19 16
-1.7612566947937012 -1.1304361820220947 6.3460164070129395 59 0 0
2.0156567096710205 -1.4874821901321411 6.056337833404541 133 17 20
-1.0140955448150635 -1.1483386754989624 6.3324503898620605 79 3 5
-1.7676467895507812 -1.0351297855377197 6.419969081878662 105 13 18
-2.171495199203491 1.7705588340759277 7.919424057006836 171 133 110
-1.4166842699050903 -1.097847819328308 6.361598491668701 113 18 24
-2.035101890563965 1.7751151323318481 7.9597697257995605 196 160 134
-1.5334042310714722 -1.0996029376983643 6.370688438415527 92 7 12
-3.789813995361328 1.4524568319320679 8.311731338500977 192 155 129
-1.0364187955856323 -1.163084626197815 6.313153266906738 118 19 22
3.7532758712768555 2.811339855194092 6.770537376403809 158 127 107
2.302396297454834 -1.178348183631897 6.28187370300293 201 221 210
-1.0219128131866455 -1.2093437910079956 6.296457290649414 209 211 232
-1.4538687467575073 -1.0643573999404907 6.390410423278809 120 24 26
0.47030746936798096 -0.0073553030379116535 7.312614440917969 201 155 67
2.6883203983306885 -0.8033794164657593 6.571444988250732 109 43 8
2.777665138244629 1.235137939453125 8.005596160888672 119 87 66
-2.1954894065856934 2.2686548233032227 7.546423435211182 192 156 130
-0.6025422811508179 1.5998547077178955 7.998082160949707 130 98 77
-1.3529573678970337 -1.0638508796691895 6.392256736755371 202 201 232
0.20561496913433075 1.5371884107589722 7.9529523849487305 195 151 124
-1.493377685546875 -1.0386065244674683 6.414350509643555 123 28 32
3.5144574642181396 2.1489126682281494 7.281713008880615 185 153 130
1.6771190166473389 -2.3272955417633057 6.485077381134033 192 248 239
0.7241075038909912 -2.1332550048828125 6.38275671005249 168 141 156
-0.3411143124103546 1.8655588626861572 7.727662086486816 186 151 132
-0.4402862787246704 -1.9226125478744507 6.250327110290527 187 251 227
-0.8431751728057861 1.7881078720092773 7.831551551818848 199 169 143
2.8937337398529053 -1.4764072895050049 6.070536136627197 0 20 0
-0.31504976749420166 2.1618425846099854 7.4985857009887695 131 103 89
-1.2829560041427612 -1.0233135223388672 6.427439212799072 88 9 14
-0.7770212292671204 1.8097481727600098 7.813619613647461 200 165 145
-1.5971392393112183 -1.0662370920181274 6.402959823608398 99 12 21
2.634207248687744 2.685994863510132 6.911917686462402 43 19 17
1.4889878034591675 -1.1993905305862427 6.263146877288818 2 138 53
2.791008472442627 -1.3951966762542725 6.126694679260254 19 41 29
2.796405792236328 -1.4857779741287231 6.068512916564941 9 28 8
-1.7676467895507812 -1.0351297855377197 6.419969081878662 105 13 18
1.882663369178772 3.025632858276367 6.701087951660156 186 154 131
0.693882167339325 2.1950008869171143 7.447242259979248 176 146 122
0.5876248478889465 -1.3305643796920776 6.202429294586182 12 0 0
-4.242374897003174 3.0088040828704834 7.254811763763428 178 150 129
-2.8091444969177246 -1.3994921445846558 6.174328804016113 174 218 227
1.4634474515914917 2.5410966873168945 7.084813117980957 182 148 123
4.51232385635376 0.937692403793335 8.089195251464844 136 107 93
0.13956066966056824 2.9375 6.847713947296143 173 133 108
-2.6461613178253174 -0.828062891960144 6.617926120758057 0 153 48
2.102268695831299 -2.051549196243286 6.261276721954346 112 107 103
2.2774810791015625 -1.3535345792770386 6.1610636711120605 207 212 192
-2.8469927310943604 -1.3437010049819946 6.226279258728027 0 106 37
-2.5726442337036133 -1.325834035873413 6.2115068435668945 12 133 54
2.1803300380706787 3.197916030883789 6.541636943817139 47 29 25
3.747337818145752 1.4357775449752808 7.76243782043457 143 114 100
-1.3539597988128662 -1.276132583618164 6.235127925872803 92 16 16
-1.3558274507522583 -1.0355336666107178 6.415511608123779 105 15 25
2.3150076866149902 -1.153632402420044 6.293857574462891 195 204 177
2.356666088104248 -1.0525065660476685 6.410582065582275 187 198 184
-1.4402910470962524 -1.1965466737747192 6.296078681945801 170 207 236
-2.800384044647217 1.3412474393844604 8.305870056152344 169 123 97
1.960511565208435 2.3039488792419434 7.2444000244140625 73 51 38
-0.9963793754577637 -0.6585102081298828 6.7128825187683105 184 175 158
2.721712112426758 -1.293624997138977 6.20555305480957 1 18 2
0.6333339810371399 2.2338130474090576 7.403958797454834 179 151 130
0.8680455684661865 -2.4135000705718994 6.637121200561523 143 135 116
1.5769495964050293 0.6400237083435059 7.774464130401611 22 25 30
2.2061545848846436 -2.0813100337982178 6.287905216217041 194 232 241
2.0007662773132324 -2.026979684829712 6.255624771118164 170 175 171
-1.2936698198318481 -2.015153646469116 6.347844123840332 3 224 119
2.3709983825683594 -1.1395795345306396 6.309726715087891 183 196 178
3.9773001670837402 2.1762428283691406 7.215718746185303 174 144 120
3.1862077713012695 3.015697956085205 6.626095771789551 58 39 33
0.9374902844429016 -1.2228729724884033 6.259987831115723 14 0 0
2.2886791229248047 -1.4747731685638428 6.076062202453613 127 31 35
-1.417424201965332 -1.025112509727478 6.4244866371154785 121 26 32
2.42010235786438 -1.3307360410690308 6.171443462371826 178 196 180
-0.9267892837524414 -1.2411004304885864 6.267451763153076 54 0 14
1.526429295539856 1.9239051342010498 7.628015041351318 192 151 121
2.909886598587036 -1.425344467163086 6.10009241104126 184 196 176
-1.6604855060577393 -1.0554789304733276 6.3969807624816895 66 17 23
-0.9573476910591125 -1.2409677505493164 6.260291576385498 86 0 11
2.398749589920044 -1.3472907543182373 6.139915466308594 1 15 0
2.8513853549957275 2.3403921127319336 7.166503429412842 148 117 99
-1.2446551322937012 -1.2656614780426025 6.24021577835083 166 198 221
-2.8469927310943604 -1.3437010049819946 6.226279258728027 0 106 37
0.9385146498680115 -2.544332265853882 6.746542930603027 115 135 110
2.4500768184661865 2.6863672733306885 6.930802822113037 168 133 113
-1.0855377912521362 3.1493687629699707 6.773357391357422 176 135 115
2.8939263820648193 -1.3363124132156372 6.173803806304932 191 200 173
3.05303955078125 2.3456599712371826 7.18470573425293 185 154 133
-1.432666540145874 3.0055019855499268 6.915198802947998 189 155 127
1.2333999872207642 -1.2779628038406372 6.219801902770996 22 2 0
2.376413583755493 -1.5315184593200684 6.050118446350098 134 23 30
2.634207248687744 2.685994863510132 6.911917686462402 43 19 17
3.0090909004211426 2.7412517070770264 6.8439249992370605 179 145 120
1.912863850593567 2.728238344192505 6.926349639892578 201 175 152
2.8093276023864746 -2.1395318508148193 6.333092212677002 19 45 72
-1.180791974067688 -1.2320958375930786 6.2610602378845215 100 8 13
2.651214838027954 -1.4173016548156738 6.115764617919922 10 28 14
3.3829424381256104 2.072218894958496 7.309045314788818 194 166 144
2.1172773838043213 3.3022778034210205 6.451625823974609 114 76 53
2.091348648071289 -1.3184064626693726 6.170361518859863 12 35 25
-5.753640651702881 0.9359292984008789 8.892282485961914 177 136 106
-1.6814322471618652 -1.1659101247787476 6.319498062133789 80 0 11
1.4814863204956055 -2.4389376640319824 6.593014717102051 143 132 140
-1.845485806465149 -1.1306467056274414 6.34122896194458 113 22 27
2.782562255859375 -1.277529001235962 6.2244696617126465 187 201 178
2.8093276023864746 -2.1395318508148193 6.333092212677002 19 45 72
-2.1894869804382324 0.6874456405639648 7.9553608894348145 26 24 25
1.2108391523361206 0.6182926297187805 7.765506744384766 163 82 37
2.624704360961914 -1.4114446640014648 6.105178356170654 11 39 27
1.939387321472168 2.7422189712524414 6.930700302124023 179 148 130
4.853337287902832 1.4185805320739746 7.6803483963012695 131 95 81
-1.1111478805541992 -1.1969449520111084 6.28821325302124 105 18 24
2.18548846244812 -2.069949150085449 6.271622657775879 167 193 194
-1.1639575958251953 -1.280379056930542 6.230292797088623 110 18 23
0.08822663873434067 2.48504900932312 7.230226039886475 198 165 146
0.08822663873434067 2.48504900932312 7.230226039886475 198 165 146
-2.7456140518188477 -1.323744535446167 6.22607421875 0 146 74
1.53410005569458 1.2526322603225708 8.065202713012695 142 98 73
-1.678479552268982 1.6192682981491089 7.977162837982178 167 127 101
3.2226996421813965 1.3780502080917358 7.945126533508301 147 119 105
2.0614140033721924 3.160615921020508 6.5711493492126465 147 115 92
-2.781027317047119 -1.3637421131134033 6.200485706329346 196 232 244
1.1416617631912231 1.6501796245574951 7.803574562072754 95 63 48
-1.5935226678848267 1.190127968788147 8.318744659423828 139 106 87
-0.7686070203781128 1.6767873764038086 7.910984516143799 188 152 120
0.7736618518829346 2.4638612270355225 7.212401866912842 179 151 129
-2.6461470127105713 -1.3437567949295044 6.203176021575928 164 219 216
-1.5971392393112183 -1.0662370920181274 6.402959823608398 99 12 21
-1.643843650817871 -1.1972441673278809 6.303435325622559 80 9 15
-2.647108316421509 2.265918731689453 7.589423656463623 205 175 151
1.9020648002624512 2.1217386722564697 7.421900272369385 102 67 47
2.593210458755493 -1.2660162448883057 6.230180263519287 198 208 173
3.702882766723633 3.3620824813842773 6.309471607208252 136 99 81
-0.4420773983001709 2.768122434616089 7.0409440994262695 114 85 71
-1.1924469470977783 -0.941237211227417 6.489638328552246 167 156 134
-2.562265634536743 1.8931788206100464 7.8574323654174805 201 169 144
2.3772506713867188 1.7356349229812622 7.678514003753662 187 143 116
-1.2057318687438965 -1.090148687362671 6.38025426864624 69 1 12
2.322969913482666 -1.439340353012085 6.097415924072266 192 206 193
3.3527297973632812 2.979257345199585 6.652515411376953 195 167 143
2.4500768184661865 2.6863672733306885 6.930802822113037 168 133 113
3.8725922107696533 2.537627935409546 6.97557258605957 169 139 115
4.0862884521484375 2.8069703578948975 6.747906684875488 149 118 100
2.9954161643981934 0.4725213944911957 7.614410400390625 189 139 54
-0.6700520515441895 2.998431444168091 6.862205982208252 72 45 38
2.2276690006256104 -1.4853345155715942 6.080228328704834 88 0 0
2.3843183517456055 -1.210410237312317 6.271856307983398 197 210 184
2.4327807426452637 -1.3220175504684448 6.174647331237793 182 195 177
4.597644805908203 2.164605140686035 7.203192710876465 168 136 115
2.8534233570098877 -1.4991804361343384 6.049241065979004 180 204 172
2.606921672821045 2.3958375453948975 7.150933265686035 143 107 91
-1.2057318687438965 -1.090148687362671 6.38025426864624 69 1 12
-0.98216712474823 -1.2467589378356934 6.253261089324951 107 21 22
2.7690396308898926 -1.4831912517547607 6.060561180114746 8 34 21
0.6691615581512451 0.4938124120235443 7.679308891296387 206 172 101
2.6813414096832275 -1.2846803665161133 6.20486307144165 0 10 6
-1.3513542413711548 -1.1999825239181519 6.293125152587891 206 209 226
2.8593804836273193 2.589118719100952 6.987619876861572 195 159 135
-1.0949680805206299 2.9543397426605225 6.9097723960876465 209 173 149
0.8506830930709839 -2.5166921615600586 6.722996234893799 227 213 148
3.3107223510742188 1.8327746391296387 7.551148414611816 193 162 142
-0.8872030377388 1.3101266622543335 8.172778129577637 171 129 104
2.6842339038848877 -1.4337526559829712 6.101701259613037 10 36 23
-1.1426466703414917 1.2935138940811157 8.203361511230469 177 137 111
-1.1295760869979858 1.8683093786239624 7.794630527496338 158 120 97
1.519255518913269 2.971162796020508 6.770962238311768 163 131 116
5.368716239929199 1.0162259340286255 7.905450820922852 169 134 114
2.1928675174713135 -1.1233407258987427 6.327518939971924 187 201 186
-0.8549476265907288 -1.1669065952301025 6.320662975311279 163 18 23
1.300499439239502 -2.4587488174438477 6.650484085083008 203 235 250
-0.4925597608089447 -1.9221283197402954 6.254951000213623 195 254 224
3.478527784347534 2.4118638038635254 7.099515438079834 197 166 145
1.826746940612793 -1.4871232509613037 6.0613603591918945 135 22 24
-0.5189726948738098 -1.8826181888580322 6.229115009307861 196 252 217
-0.957133948802948 -1.2335216999053955 6.265088081359863 113 17 21
4.450505256652832 1.7608768939971924 7.49092435836792 190 161 143
-4.036678791046143 3.108696222305298 7.077307224273682 198 172 149
2.5132343769073486 -1.4095515012741089 6.1108012199401855 2 24 11
1.939387321472168 2.7422189712524414 6.930700302124023 179 148 130
2.7322559356689453 -1.4188897609710693 6.110659599304199 185 196 179
-1.282152771949768 -1.1678377389907837 6.313699722290039 208 203 235
1.591231346130371 -2.368940591812134 6.54191780090332 189 243 227
3.7128841876983643 3.0198066234588623 6.647380828857422 183 147 123
1.0272499322891235 1.7374753952026367 7.731287002563477 209 167 142
-1.0723659992218018 -1.283495545387268 6.236162185668945 89 0 0
1.8716111183166504 3.032432794570923 6.699902057647705 54 27 18
2.3609366416931152 -1.1943135261535645 6.2539448738098145 31 55 42
-4.003050327301025 0.8662331700325012 8.777410507202148 187 151 127
-2.759166955947876 -1.1111379861831665 6.394488334655762 79 251 169
0.7155820727348328 -1.1651066541671753 6.296618938446045 10 0 0
-2.2566330432891846 2.0723822116851807 7.701164245605469 155 118 99
1.9978790283203125 2.0114433765411377 7.493393898010254 150 109 87
1.8471146821975708 -0.013358010910451412 7.241919994354248 178 159 91
3.009737014770508 -1.3281235694885254 6.188019275665283 0 13 0
2.4592881202697754 -1.1351853609085083 6.328423976898193 0 17 1
2.324737787246704 2.943011522293091 6.731780529022217 36 22 13
0.9590048789978027 -2.4104502201080322 6.618749618530273 117 142 149
1.1350898742675781 2.816741943359375 6.894202709197998 89 65 55
0.7332491278648376 2.1999313831329346 7.374706268310547 184 152 129
-1.9160138368606567 -1.0129286050796509 6.419841289520264 68 0 2
1.5448558330535889 -2.1140100955963135 6.327778339385986 112 134 147
-1.0624065399169922 2.939474105834961 6.927306652069092 212 180 157
0.24685469269752502 2.2443888187408447 7.409303665161133 191 166 144
-0.3534373641014099 3.355774402618408 6.558432102203369 155 117 96
-4.906427383422852 1.517451524734497 8.362493515014648 141 104 85
1.4100922346115112 1.936180830001831 7.5891618728637695 130 93 67
-2.5503056049346924 1.9410269260406494 7.820064544677734 178 141 115
2.0148935317993164 -2.024630308151245 6.233492851257324 188 161 154
2.6521990299224854 -1.2560404539108276 6.225743293762207 7 30 12
-2.1138410568237305 2.4458229541778564 7.389986038208008 161 123 100
2.765544891357422 -1.424149751663208 6.115548133850098 11 25 12
-1.432666540145874 3.0055019855499268 6.915198802947998 189 155 127
2.3724236488342285 -1.306923508644104 6.188449859619141 13 31 19
1.9442925453186035 3.1676671504974365 6.5989484786987305 54 36 32
2.7692317962646484 -1.2915456295013428 6.215861797332764 0 13 0
-1.8159632682800293 -1.0500074625015259 6.40202522277832 189 197 220
0.48673057556152344 1.7513374090194702 7.784225940704346 193 152 124
-1.5474352836608887 -1.2071503400802612 6.294424057006836 123 31 44
-2.3951494693756104 -2.4341769218444824 6.8113484382629395 225 233 236
1.6705350875854492 1.7396528720855713 7.711341381072998 136 98 77
-1.2427735328674316 2.0667402744293213 7.623870372772217 171 135 113
-1.133002519607544 -1.285338282585144 6.232381820678711 124 33 38
2.7615411281585693 -1.3991339206695557 6.114660263061523 20 43 33
-0.4402862787246704 -1.9226125478744507 6.250327110290527 187 251 227
4.597644805908203 2.164605140686035 7.203192710876465 168 136 115
3.9287431240081787 3.195584535598755 6.450830936431885 181 150 129
1.7396495342254639 3.05374813079834 6.701188564300537 32 14 2
-1.1325513124465942 -1.2966837882995605 6.219286918640137 73 0 0
2.4414262771606445 -1.1899546384811401 6.282308578491211 0 11 1
2.3732595443725586 -1.9609066247940063 6.1622161865234375 186 239 255
-0.3238407373428345 1.3346261978149414 8.164665222167969 177 136 108
-1.4802207946777344 1.4404950141906738 8.128108978271484 163 128 108
1.018538236618042 -0.5406931638717651 6.717629432678223 22 31 36
2.132458209991455 -1.2840279340744019 6.198760032653809 180 192 168
4.399641036987305 1.742863416671753 7.535521984100342 184 158 135
2.971376895904541 -1.9163151979446411 6.158246994018555 184 232 246
-3.3647122383117676 3.104569435119629 6.980055332183838 206 181 161
1.99910306930542 -2.045520782470703 6.256585597991943 225 236 238
2.2292754650115967 -1.1257051229476929 6.321487903594971 175 184 165
2.960043430328369 -2.027462959289551 6.249423980712891 184 227 246
-1.775042176246643 -1.1252436637878418 6.366161823272705 62 3 5
-0.40846458077430725 2.070446014404297 7.566066741943359 146 117 99
1.830348253250122 1.8081928491592407 7.66661262512207 136 100 78
-2.7876086235046387 -1.3368531465530396 6.239669322967529 0 105 37
2.2024505138397217 3.262624979019165 6.48199462890625 43 24 18
2.0556235313415527 -1.2442781925201416 6.228829383850098 21 39 25
1.417758822441101 -2.146820545196533 6.341023921966553 165 189 199
2.0961496829986572 -1.2979182004928589 6.1860833168029785 24 42 28
2.2810182571411133 -1.131004810333252 6.326789855957031 0 9 0
-1.161218523979187 -1.112691044807434 6.357076644897461 65 0 12
3.44722580909729 2.1251635551452637 7.282135486602783 177 151 128
0.571773111820221 -1.3303121328353882 6.201793193817139 186 131 77
-0.5669675469398499 1.8713045120239258 7.762014865875244 151 113 92
-0.7069357633590698 -2.0283596515655518 6.3519062995910645 188 252 217
-1.789231538772583 -0.4140907824039459 6.961182117462158 164 201 230
4.473488807678223 1.574242353439331 7.640466213226318 200 174 157
1.5133562088012695 -2.402378797531128 6.571063995361328 219 232 248
-1.0855377912521362 3.1493687629699707 6.773357391357422 176 135 115
0.5301836729049683 3.084411382675171 6.7220458984375 197 158 129
2.834824323654175 -1.3213328123092651 6.187105178833008 191 205 172
0.6454733610153198 2.669808864593506 7.074351787567139 186 149 130
0.1685735583305359 2.3135130405426025 7.338018417358398 184 155 137
2.6521990299224854 -1.2560404539108276 6.225743293762207 7 30 12
1.497420310974121 2.6864233016967773 6.990623474121094 153 125 103
4.221342086791992 1.8130582571029663 7.531254768371582 130 106 96
-2.7876086235046387 -1.3368531465530396 6.239669322967529 0 105 37
-2.657808303833008 2.082956075668335 7.724395275115967 197 163 138
-1.9509855508804321 -1.0566308498382568 6.3737473487854 109 14 18
2.3293144702911377 -1.350937008857727 6.148759841918945 186 201 178
2.8924736976623535 -1.3234494924545288 6.192195892333984 30 50 38
2.5803396701812744 -1.2344844341278076 6.249752998352051 191 202 188
3.0413830280303955 2.6846346855163574 6.923582553863525 185 149 127
0.7903744578361511 2.5636868476867676 7.125758647918701 136 107 89
3.7828290462493896 1.46213960647583 7.717092990875244 144 115 101
2.176607847213745 -1.239296317100525 6.2339301109313965 14 40 27
-1.2002618312835693 -1.1510424613952637 6.320333957672119 88 0 3
4.273663520812988 1.7707056999206543 7.516296863555908 184 156 135
-1.438904047012329 -1.0328212976455688 6.423227310180664 223 221 235
0.8845195174217224 -2.160383701324463 6.401132106781006 108 120 146
-0.99366295337677 -1.2296487092971802 6.29270601272583 193 146 166
2.485715627670288 1.7396539449691772 7.651072978973389 203 168 146
4.314979553222656 1.4149733781814575 7.706379413604736 203 178 156
2.6683804988861084 -1.410478949546814 6.112409591674805 177 194 178
2.2581093311309814 -1.338218331336975 6.168253421783447 205 218 175
-1.0949680805206299 2.9543397426605225 6.9097723960876465 209 173 149
4.473488807678223 1.574242353439331 7.640466213226318 200 174 157
2.2505438327789307 -1.4639928340911865 6.069719314575195 97 0 0
1.4814863204956055 -2.4389376640319824 6.593014717102051 143 132 140
-1.0942201614379883 -1.2076524496078491 6.286120414733887 231 221 230
3.802849292755127 1.0848318338394165 8.119586944580078 156 125 105
2.5102365016937256 -1.5130221843719482 6.0497941970825195 138 26 25
-2.7243151664733887 -1.0449621677398682 6.436115741729736 0 117 36
4.500096321105957 2.4015703201293945 7.071181297302246 183 151 136
-1.2289544343948364 -1.2568347454071045 6.252570152282715 194 212 234
1.4630887508392334 1.923538327217102 7.580184459686279 178 139 108
-1.781589150428772 2.73526668548584 7.155893802642822 113 86 67
0.5784907341003418 2.376178026199341 7.301198959350586 179 152 131
-1.6987847089767456 1.9194327592849731 7.745874881744385 207 172 150
-0.41541779041290283 2.0296554565429688 7.612502098083496 193 161 138
1.7716739177703857 3.2932095527648926 6.528608798980713 237 199 176
2.337785243988037 -0.9583372473716736 6.4564433097839355 56 151 31
2.906280040740967 -1.3120349645614624 6.1909098625183105 185 199 174
1.4181270599365234 -2.1077687740325928 6.331282138824463 202 235 250
2.8924736976623535 -1.3234494924545288 6.192195892333984 30 50 38
3.192448377609253 2.9655256271362305 6.606869697570801 104 77 58
-2.759166955947876 -1.1111379861831665 6.394488334655762 79 251 169
2.9358856678009033 -1.453606128692627 6.0968403816223145 0 10 0
3.0127058029174805 0.6579967737197876 7.7841691970825195 30 41 25
2.169499158859253 1.8133379220962524 7.601194858551025 166 127 98
1.8461207151412964 3.075561046600342 6.6478447914123535 151 118 103
1.521459698677063 1.56886887550354 7.856770992279053 183 141 116
3.093139171600342 2.7659997940063477 6.85170841217041 159 121 100
-2.7521750926971436 -1.3684245347976685 6.196611404418945 0 114 53
2.7086434364318848 -1.266319990158081 6.227256774902344 12 26 13
2.971376895904541 -1.9163151979446411 6.158246994018555 184 232 246
-4.092197895050049 2.3387444019317627 7.649592399597168 178 148 124
-0.39995521306991577 3.2108850479125977 6.652181625366211 144 108 84
-1.0211480855941772 -1.2312031984329224 6.290346622467041 107 17 19
2.2650811672210693 -1.3729205131530762 6.152072429656982 83 93 84
2.048936605453491 2.883941173553467 6.798433303833008 118 94 82
-0.9277227520942688 -1.2537376880645752 6.2692155838012695 110 18 21
-0.5910754203796387 1.657610535621643 7.910479545593262 201 166 136
0.751245379447937 -1.1642183065414429 6.322357177734375 19 2 0
2.2771849632263184 -1.3214629888534546 6.183736324310303 183 208 169
-2.4151697158813477 2.214738368988037 7.567605972290039 141 111 87
2.8902652263641357 -1.4901115894317627 6.055758953094482 180 193 163
2.968313455581665 -1.392842411994934 6.129665851593018 189 201 189
2.5660040378570557 -1.2250205278396606 6.247939109802246 183 197 182
0.1841667890548706 -2.6518588066101074 6.881939888000488 144 183 164
2.207918167114258 -1.1509090662002563 6.2970147132873535 176 188 164
1.5298388004302979 -2.4011125564575195 6.564584255218506 167 142 148
-0.07109972089529037 3.409064769744873 6.50248384475708 109 81 70
-0.11643769592046738 -1.3305188417434692 6.192391872406006 109 6 33
0.1841667890548706 -2.6518588066101074 6.881939888000488 144 183 164
-2.515645742416382 -1.3921360969543457 6.18529748916626 2 132 72
-3.064967393875122 2.912684440612793 7.088639259338379 182 152 128
-0.9050024747848511 -1.2565809488296509 6.252819061279297 121 26 30
1.0685731172561646 1.5393502712249756 7.912071704864502 166 125 97
-0.05328027531504631 2.216925621032715 7.451075553894043 181 153 131
2.2109923362731934 2.435516119003296 7.158745765686035 177 141 117
2.176992654800415 1.8340545892715454 7.611851692199707 186 151 123
-1.4703439474105835 -1.9640018939971924 6.324551105499268 187 254 210
-3.1219491958618164 1.8820360898971558 7.896459579467773 189 155 130
2.078033924102783 -1.441342830657959 6.087464809417725 183 195 183
2.402338743209839 0.20269350707530975 7.385254383087158 182 123 33
0.14314042031764984 3.249295949935913 6.614602088928223 178 140 117
2.8524580001831055 -1.540428876876831 6.029544353485107 17 39 26
2.267240285873413 -1.6385194063186646 5.964715003967285 119 132 123
3.7745866775512695 1.996616244316101 7.426473617553711 176 145 127
2.5479485988616943 2.884244680404663 6.741880893707275 99 64 44
-0.680823802947998 -1.9942539930343628 6.3160014152526855 0 164 79
2.2650811672210693 -1.3729205131530762 6.152072429656982 83 93 84
-0.8508521914482117 1.6470322608947754 7.909280776977539 189 150 121
-0.3795187473297119 1.5676774978637695 7.930606365203857 179 138 110
-2.706979990005493 -1.6495929956436157 6.188210964202881 21 204 100
1.8465473651885986 3.1351888179779053 6.611985683441162 129 98 70
-1.2979978322982788 -2.307497501373291 6.6143107414245605 220 236 88
-2.764810562133789 -1.3056640625 6.2363762855529785 188 237 241
1.6287435293197632 2.676990509033203 6.992487907409668 138 118 109
1.2795251607894897 -2.181816577911377 6.399881839752197 110 146 160
1.5175381898880005 2.9937143325805664 6.735739707946777 156 127 109
-1.438904047012329 -1.0328212976455688 6.423227310180664 223 221 235
-0.9515107274055481 3.0272436141967773 6.847859859466553 190 156 131
2.6906402111053467 -1.2493910789489746 6.222938537597656 199 208 181
2.003216028213501 -2.149768352508545 6.391733169555664 208 167 137
1.550767183303833 2.15472149848938 7.431758880615234 128 85 68
1.3424134254455566 -2.0944223403930664 6.331569194793701 124 154 165
0.43248286843299866 1.7308086156845093 7.828097820281982 206 169 140
2.3962767124176025 -1.1241042613983154 6.316473960876465 10 34 21
2.9562554359436035 -2.1009950637817383 6.302143096923828 183 229 242
1.322641372680664 -2.431727647781372 6.617212295532227 200 236 250
3.1298916339874268 2.6908066272735596 6.887478351593018 178 143 121
2.305887222290039 -1.5110983848571777 6.050158500671387 215 225 214
0.9996796250343323 2.0020816326141357 7.607168197631836 195 154 126
2.2895290851593018 -1.0220884084701538 6.413558483123779 7 47 10
2.305887222290039 -1.5110983848571777 6.050158500671387 215 225 214
-0.9276507496833801 -1.1925032138824463 6.291207790374756 100 9 18
4.102332592010498 1.962411880493164 7.429218292236328 161 130 112
0.5140796303749084 -2.0391697883605957 6.317783832550049 193 234 254
-0.9002941250801086 -1.249739170074463 6.261538028717041 92 7 14
-1.6877055168151855 -2.2392079830169678 6.570734024047852 42 50 39
2.3293144702911377 -1.350937008857727 6.148759841918945 186 201 178
0.33951976895332336 -1.1906061172485352 6.294119358062744 146 52 50
2.440999984741211 -1.2020573616027832 6.259729862213135 182 191 170
-1.1201467514038086 -1.972658395767212 6.320955276489258 192 254 213
-1.2936698198318481 -2.015153646469116 6.347844123840332 3 224 119
1.2730504274368286 -2.0780141353607178 6.243430137634277 164 201 220
2.1992616653442383 -1.516756296157837 6.033166408538818 134 23 32
2.963923931121826 2.7216873168945312 6.878625869750977 181 143 120
3.7798259258270264 3.158909559249878 6.50567102432251 166 131 109
-2.7196593284606934 2.0460848808288574 7.735832214355469 191 156 128
3.6661946773529053 2.2452690601348877 7.243491172790527 92 63 55
0.5313900709152222 -2.215144157409668 6.456137657165527 192 233 253
-1.775042176246643 -1.1252436637878418 6.366161823272705 62 3 5
2.1992616653442383 -1.516756296157837 6.033166408538818 134 23 32
0.9109285473823547 2.8005459308624268 6.930022716522217 176 139 120
2.810059070587158 -2.1744141578674316 6.36277961730957 68 100 123
-2.405850410461426 0.6355844736099243 7.868586540222168 43 65 27
0.8993858695030212 -2.409193277359009 6.626656532287598 134 134 122
0.012204003520309925 -2.505871295928955 6.724963188171387 106 229 166
2.156585216522217 2.81223464012146 6.83543062210083 74 52 41
5.89225435256958 -0.010273191146552563 8.646697044372559 140 112 101
-1.389480471611023 -2.2189135551452637 6.530959129333496 235 234 64
1.8270339965820312 -1.4322832822799683 6.102775573730469 0 94 2
2.2269771099090576 -1.3052659034729004 6.185011386871338 181 196 167
-1.424556016921997 -2.0074338912963867 6.352550506591797 18 222 127
-0.932858407497406 -2.0086874961853027 6.337454795837402 103 221 160
-0.6282913088798523 1.4191551208496094 8.072297096252441 130 89 69
2.7762351036071777 -1.4503792524337769 6.088683605194092 17 45 33
2.3843183517456055 -1.210410237312317 6.271856307983398 197 210 184
1.7902201414108276 -2.482569456100464 6.643795013427734 145 173 184
1.7791924476623535 -2.118351936340332 6.293451309204102 193 236 255
-2.5369679927825928 -1.763839602470398 6.229333877563477 70 79 78
2.43461275100708 2.964265823364258 6.728592395782471 51 23 9
1.4527513980865479 0.28502172231674194 7.500133037567139 102 76 59
-1.6656180620193481 -1.0497498512268066 6.413748741149902 179 107 118
1.301227331161499 2.3716044425964355 7.232398509979248 160 133 112
-1.4263057708740234 2.466414451599121 7.331124782562256 179 141 118
-0.7876847982406616 2.732447624206543 7.097475528717041 128 91 72
0.06453588604927063 1.7878750562667847 7.782737731933594 183 148 129
1.6771190166473389 -2.3272955417633057 6.485077381134033 192 248 239
-1.4595344066619873 -1.1535565853118896 6.3262248039245605 67 5 10
-0.5970348119735718 2.6544411182403564 7.123332977294922 204 170 145
0.8391203284263611 2.1947014331817627 7.416816234588623 122 94 80
1.8270339965820312 -1.4322832822799683 6.102775573730469 0 94 2
3.0435450077056885 2.2782483100891113 7.2084856033325195 156 128 107
-1.3167004585266113 -1.1826927661895752 6.302862167358398 189 197 220
-1.9357410669326782 2.26035737991333 7.513368606567383 181 146 126
-2.5726442337036133 -1.325834035873413 6.2115068435668945 12 133 54
2.2810182571411133 -1.131004810333252 6.326789855957031 0 9 0
1.4505372047424316 -2.183802366256714 6.38969087600708 209 239 249
2.791008472442627 -1.3951966762542725 6.126694679260254 19 41 29
2.8902652263641357 -1.4901115894317627 6.055758953094482 180 193 163
2.6614980697631836 -1.2363282442092896 6.254739761352539 2 20 4
2.190631866455078 -1.0795989036560059 6.340456485748291 21 41 30
-1.1942020654678345 -1.0689544677734375 6.401300430297852 94 10 25
-4.2353196144104 2.5727126598358154 7.486007213592529 119 91 79
0.7394821643829346 2.108757734298706 7.451218128204346 146 115 97
-0.9942380785942078 1.713599443435669 7.904103755950928 207 175 152
-0.818711519241333 -2.002470016479492 6.336528778076172 192 254 215
3.051393985748291 1.4639378786087036 7.843186378479004 134 111 103
3.9340295791625977 1.482930064201355 7.756193161010742 160 129 111
1.6287435293197632 2.676990509033203 6.992487907409668 138 118 109
-0.9864965677261353 -1.1826475858688354 6.301818370819092 99 19 28
0.11284033954143524 2.2929317951202393 7.377939224243164 175 147 125
-2.71799373626709 -1.0192241668701172 6.458756923675537 99 255 181
4.181291580200195 2.5713257789611816 6.954726219177246 197 167 141
2.220540761947632 1.8554974794387817 7.625516891479492 192 152 126
2.5762343406677246 1.6211154460906982 7.727115154266357 168 126 101
-0.7602391242980957 2.8375144004821777 7.005324840545654 137 96 76
-1.5746867656707764 2.619292736053467 7.2181596755981445 181 145 121
0.8130343556404114 -2.406507968902588 6.620779514312744 227 233 223
-2.7196593284606934 2.0460848808288574 7.735832214355469 191 156 128
3.7276861667633057 2.4078686237335205 7.029478549957275 165 137 116
2.0567257404327393 -1.5047141313552856 6.047842979431152 91 4 0
-3.064967393875122 2.912684440612793 7.088639259338379 182 152 128
3.31591534614563 2.8798105716705322 6.693197250366211 136 98 75
0.6641069054603577 -2.559128522872925 6.7721848487854 59 180 109
2.2743003368377686 -1.1854443550109863 6.282600402832031 9 25 25
2.580037832260132 2.18430495262146 7.306964874267578 182 151 130
1.2832008600234985 -2.135881185531616 6.36520528793335 87 116 132
-2.5706729888916016 3.2792985439300537 6.752486228942871 183 148 126
0.732217013835907 -2.200467348098755 6.439671039581299 60 107 159
-2.5344643592834473 -1.3548182249069214 6.181504249572754 171 219 229
1.3863191604614258 -2.1266512870788574 6.352829456329346 113 145 160
2.5007004737854004 -2.0573155879974365 6.241307258605957 191 239 255
3.1773974895477295 1.742078423500061 7.600268363952637 172 143 125
2.160768747329712 -1.3567579984664917 6.173001289367676 186 198 186
-3.3389456272125244 3.0546133518218994 7.017956733703613 182 150 125
-1.3790422677993774 -1.2483735084533691 6.258102893829346 130 41 45
-1.0382457971572876 -1.2121062278747559 6.295326232910156 163 201 224
0.9968603849411011 -2.4606475830078125 6.673017501831055 228 224 179
2.6571850776672363 -1.2008998394012451 6.275481224060059 186 199 181
3.417917490005493 1.7823448181152344 7.540878772735596 124 100 90
2.1825718879699707 -2.055255174636841 6.261244297027588 74 109 128
-1.4730411767959595 -1.2008861303329468 6.297609329223633 82 0 11
3.2412188053131104 2.054750919342041 7.350611686706543 180 147 128
-3.466153860092163 -1.351994514465332 6.2449164390563965 168 219 214
-0.6348647475242615 -2.0166726112365723 6.336661338806152 190 255 213
1.4921698570251465 1.5533318519592285 7.860267162322998 172 131 101
-2.628985643386841 3.2054660320281982 6.889285087585449 170 140 129
3.9648098945617676 2.4640791416168213 7.056559085845947 157 125 104
-0.265270859003067 -2.0296761989593506 6.3336944580078125 204 248 221
2.909792184829712 2.6158416271209717 6.995183944702148 169 133 109
1.0686323642730713 1.953794240951538 7.620429039001465 156 114 92
1.3140157461166382 -2.1227073669433594 6.348640441894531 105 151 167
1.2991235256195068 1.8348093032836914 7.6962738037109375 190 149 121
2.5232300758361816 -1.6313419342041016 5.96335506439209 200 193 187
-4.093364715576172 1.6815799474716187 8.14627456665039 201 166 138
-0.2550601363182068 1.1342803239822388 8.327509880065918 58 47 41
-2.2428231239318848 1.8687570095062256 7.872342109680176 206 172 147
-4.81403112411499 1.4109091758728027 8.398754119873047 211 179 154
1.3443689346313477 2.872267484664917 6.837429523468018 65 35 25
-1.8628631830215454 2.342289924621582 7.492489337921143 172 131 111
0.2965424656867981 1.8367516994476318 7.692490100860596 194 159 131
2.109647035598755 -1.349731683731079 6.153617858886719 183 195 181
-2.8712480068206787 1.655371069908142 8.049349784851074 198 164 137
2.6951699256896973 -1.2986699342727661 6.179198741912842 193 208 177
3.6565518379211426 1.967888355255127 7.434471130371094 182 150 129
2.1051642894744873 -1.2190641164779663 6.240818500518799 0 24 11
2.2024505138397217 3.262624979019165 6.48199462890625 43 24 18
2.537442445755005 -1.613717794418335 5.978194236755371 151 34 42
1.6780130863189697 -2.3309528827667236 6.523519992828369 13 135 78
2.5661520957946777 -1.5300686359405518 6.030456066131592 142 31 37
-2.252575397491455 0.4629192650318146 7.729368209838867 206 213 143
1.1155331134796143 1.807977557182312 7.711693286895752 161 120 100
-2.30330491065979 -0.0957760140299797 7.183093070983887 160 26 27
2.934053421020508 -1.4188899993896484 6.102771759033203 37 60 44
-1.4701991081237793 3.4042398929595947 6.578649997711182 140 112 90
2.2743003368377686 -1.1854443550109863 6.282600402832031 9 25 25
3.063962936401367 -1.2324098348617554 6.314948081970215 71 172 52
-2.5680220127105713 0.800334095954895 8.045363426208496 34 47 37
0.85276198387146 -2.223027467727661 6.459682464599609 184 225 247
-1.6805535554885864 2.410538673400879 7.409088134765625 176 139 112
2.7801599502563477 2.78226900100708 6.807371139526367 164 130 105
0.7405566573143005 -1.109890341758728 6.336121082305908 191 151 90
4.364064693450928 2.4923877716064453 6.973835468292236 174 143 123
2.890911817550659 -1.464408278465271 6.1030473709106445 5 28 18
1.7791924476623535 -2.118351936340332 6.293451309204102 193 236 255
-0.5447856783866882 -1.9193168878555298 6.251165390014648 195 255 231
-2.1633520126342773 2.102278709411621 7.64652681350708 148 113 94
3.056867837905884 2.108536958694458 7.331315517425537 198 170 148
-1.9618600606918335 2.977306842803955 6.965327262878418 189 159 135
-3.2587831020355225 -1.7902376651763916 6.291310787200928 208 166 92
1.912863850593567 2.728238344192505 6.926349639892578 201 175 152
-1.6180241107940674 -1.9841574430465698 6.349462032318115 189 255 219
-4.632617473602295 2.2194385528564453 7.798328876495361 163 125 102
2.5762343406677246 1.6211154460906982 7.727115154266357 168 126 101
0.8770092725753784 -1.2425475120544434 6.245572090148926 17 3 3
0.3302803337574005 -2.697960376739502 6.924802780151367 220 243 217
-1.0382457971572876 -1.2121062278747559 6.295326232910156 163 201 224
0.2457345873117447 3.2084784507751465 6.652934551239014 127 89 70
3.694866180419922 1.7897257804870605 7.572155952453613 186 158 144
1.178756594657898 2.5909645557403564 7.069826126098633 170 142 121
0.08515599370002747 3.3551084995269775 6.518711566925049 108 84 72
1.4646610021591187 2.095324754714966 7.459152698516846 177 133 108
-1.0438307523727417 -1.2713623046875 6.234069347381592 170 210 236
2.490119457244873 1.7399171590805054 7.601583480834961 180 144 118
0.019411655142903328 -2.359724998474121 6.618143558502197 164 184 115
-4.5126166343688965 0.4787116050720215 9.027148246765137 169 133 109
2.6475353240966797 2.3709816932678223 7.198068141937256 196 162 137
-0.9928863644599915 1.480197548866272 8.084592819213867 184 147 120
3.500828266143799 2.7959048748016357 6.6970744132995605 168 136 113
2.0556235313415527 -1.2442781925201416 6.228829383850098 21 39 25
-0.5248161554336548 -2.018425464630127 6.334686279296875 192 249 208
2.11616587638855 -1.239721417427063 6.218521595001221 175 189 166
3.429029941558838 1.6800404787063599 7.607275009155273 168 137 116
3.355257272720337 1.8497895002365112 7.521651268005371 178 149 131
2.8398990631103516 -1.2689979076385498 6.224111080169678 0 15 0
1.949550986289978 -2.1164448261260986 6.3060221672058105 193 155 134
0.9284616708755493 -1.2574080228805542 6.2394118309021 159 117 75
2.2640585899353027 -1.1454625129699707 6.3112473487854 217 234 216
-0.4222555160522461 -1.8874176740646362 6.2281951904296875 184 251 210
-0.9450317621231079 3.0822343826293945 6.839137077331543 139 106 87
-3.482536792755127 1.92865788936615 7.931307792663574 198 162 136
2.1607866287231445 -1.1359574794769287 6.311520576477051 195 207 197
4.9741740226745605 1.2171926498413086 7.9059929847717285 170 134 110
1.0023232698440552 2.8848581314086914 6.8617730140686035 118 80 59
2.8266103267669678 -2.122119903564453 6.331753253936768 185 222 241
1.9799884557724 2.4894065856933594 7.11825704574585 169 129 104
2.293607473373413 1.38653564453125 7.932427883148193 133 91 69
2.2516491413116455 -1.1108174324035645 6.341973781585693 196 209 183
2.394455909729004 1.3311057090759277 7.937976837158203 98 63 44
-1.0697191953659058 -1.1878308057785034 6.300356864929199 240 221 241
3.9950926303863525 2.1329476833343506 7.268344879150391 138 103 84
-1.3778011798858643 2.9298810958862305 6.969974517822266 182 147 128
2.5857269763946533 2.520909547805786 7.0413432121276855 75 46 30
-1.4338377714157104 2.739818811416626 7.112382888793945 178 144 119
-2.808455228805542 1.432448148727417 8.260499000549316 185 139 113
1.3279247283935547 1.6679285764694214 7.8085036277771 175 133 108
3.5776596069335938 1.480026364326477 7.8252973556518555 195 164 143
2.770554304122925 -1.3831795454025269 6.141918659210205 180 196 170
-1.203386902809143 -1.1373831033706665 6.3436713218688965 243 220 228
-3.574289560317993 2.0453901290893555 7.849651336669922 120 92 78
2.1413674354553223 1.9741663932800293 7.503269195556641 163 123 97
4.616001605987549 1.346960186958313 7.7783894538879395 149 113 97
0.9739248156547546 1.9357837438583374 7.612260818481445 187 147 121
2.3197178840637207 -1.563114881515503 6.0214009284973145 128 18 21
-0.961888313293457 -1.2866997718811035 6.228133201599121 140 215 211
2.3519413471221924 -1.3152339458465576 6.159782886505127 157 180 154
2.669875144958496 -1.2594774961471558 6.23739767074585 0 18 0
0.7611814141273499 -2.1951301097869873 6.437733173370361 147 209 255
-0.9029017686843872 2.145109176635742 7.582395076751709 206 174 149
-2.678873300552368 1.6535762548446655 8.037014961242676 205 169 145
0.9135668277740479 3.0114388465881348 6.790493965148926 187 151 127
1.0023232698440552 2.8848581314086914 6.8617730140686035 118 80 59
1.1127279996871948 3.038926124572754 6.725527286529541 185 144 124
2.242304801940918 -1.4969528913497925 6.057348251342773 179 192 175
0.4714699685573578 3.0629184246063232 6.740710258483887 189 152 126
2.569662094116211 -1.4245445728302002 6.102540016174316 21 44 24
3.5667591094970703 1.5421113967895508 7.670783519744873 184 152 139
5.04669713973999 1.4547128677368164 7.7092509269714355 137 101 85
2.032879590988159 3.0958192348480225 6.628016471862793 48 22 5
2.885190725326538 2.721066474914551 6.902108669281006 171 134 107
-0.5168373584747314 2.443171977996826 7.304171085357666 180 148 127
-0.7602391242980957 2.8375144004821777 7.005324840545654 137 96 76
3.389194965362549 2.7672204971313477 6.839179515838623 164 128 106
1.6781394481658936 3.4237329959869385 6.372696399688721 81 40 20
1.257112741470337 -2.1173150539398193 6.349023342132568 116 148 161
-1.8579095602035522 -1.0011178255081177 6.440023422241211 101 12 14
1.302167296409607 -2.175632953643799 6.392571926116943 113 147 159
4.016674995422363 1.9418752193450928 7.400636672973633 177 146 128
4.060388565063477 2.190648078918457 7.236202239990234 152 117 98
2.120004653930664 0.5116759538650513 7.718572616577148 77 35 23
1.488417625427246 -2.1795315742492676 6.370731353759766 201 241 251
-1.0902858972549438 -1.268890142440796 6.2421345710754395 191 199 218
-0.3789583742618561 3.1619362831115723 6.71690559387207 168 133 111
3.139024257659912 2.9623937606811523 6.6584649085998535 42 23 8
-2.574357271194458 0.618992269039154 7.856346130371094 216 185 165
0.9440445303916931 -1.2590997219085693 6.238216876983643 221 184 113
0.8354664444923401 1.574079155921936 7.890255928039551 166 119 93
2.124903917312622 -2.094045400619507 6.280675411224365 192 159 126
-0.8185055255889893 -2.025458335876465 6.347615718841553 197 255 221
4.127838134765625 1.6612393856048584 7.623467922210693 132 104 83
0.2787022292613983 -2.6389646530151367 6.8744635581970215 211 241 215
1.4030529260635376 3.2998428344726562 6.505001544952393 98 64 52
3.478527784347534 2.4118638038635254 7.099515438079834 197 166 145
0.4442081153392792 1.9700639247894287 7.613918781280518 117 89 75
1.4188264608383179 -2.491032838821411 6.6671881675720215 204 216 228
2.816004514694214 1.7045307159423828 7.646687030792236 178 147 127
2.376413583755493 -1.5315184593200684 6.050118446350098 134 23 30
2.440999984741211 -1.2020573616027832 6.259729862213135 182 191 170
-0.15591709315776825 -2.027100086212158 6.328129291534424 182 254 206
-0.9171625375747681 -1.2676037549972534 6.250980377197266 229 215 228
